# .PCD v0.7 - Point Cloud Data file format
VERSION 0.7
FIELDS x y z
SIZE 4 4 4
TYPE F F F
COUNT 1 1 1
WIDTH 271
HEIGHT 1
VIEWPOINT 0 0 0 1 0 0 0
POINTS 271
DATA ascii
0.2769081 0.030257609 -0.22153428
0.28784066 0.054055668 -0.22819504
0.27024522 -0.02470623 -0.20030558
0.26867369 -0.012636004 -0.20223455
0.2670759 0.0090359524 -0.20751655
0.27230018 0.028709643 -0.20938519
0.27925014 0.044759676 -0.21297124
0.28443086 0.056720342 -0.20872349
0.28741384 0.061473113 -0.20453408
0.25790602 -0.031423893 -0.1824837
0.26563916 -0.024031937 -0.19349265
0.26554126 -0.010436367 -0.19003548
0.26629272 0.010744812 -0.18769352
0.26943845 0.030649262 -0.1879392
0.27667618 0.047269601 -0.1915793
0.24603087 -0.025115984 -0.16643015
0.25157234 -0.011238684 -0.16898356
0.26088411 -0.0087215193 -0.17576772
0.25406694 0.0074812914 -0.16533414
0.26358494 0.0087789297 -0.17221081
0.26759765 0.030159539 -0.17144893
0.28997552 -0.1521278 -0.14798021
0.17881784 -0.082208574 -0.14186588
0.18989238 -0.061018102 -0.14423203
0.19482975 -0.054828919 -0.14914294
0.23637459 -0.022670709 -0.14745364
0.24450523 -0.021446437 -0.15085611
0.23834635 -0.012663777 -0.14511262
0.24598196 -0.0088219987 -0.15203877
0.12963222 0.016231537 -0.15203433
0.25094113 0.010187601 -0.14982811
0.2138702 -0.14245531 -0.12601274
0.22371037 -0.14113358 -0.12089214
0.19567548 -0.12604798 -0.12528209
0.20532766 -0.13598186 -0.12500164
0.18500282 -0.10716183 -0.12506373
0.17819616 -0.084278926 -0.12887895
0.18106125 -0.088210113 -0.13045239
0.17780615 -0.071101084 -0.12407102
0.18200989 -0.066371173 -0.13099268
0.20401748 -0.041372843 -0.12723029
0.2247785 -0.022079021 -0.1249722
0.23362108 -0.010673448 -0.12924257
0.24283898 -0.0072604623 -0.13314308
0.21360545 -0.14189333 -0.10544442
0.22731064 -0.14806221 -0.10968544
0.2509819 -0.14659251 -0.10682001
0.19331233 -0.12391417 -0.10688469
0.20918687 -0.13258664 -0.11015626
0.22088817 -0.13787575 -0.10789654
0.17916077 -0.10414177 -0.11210692
0.19015999 -0.11193256 -0.11013484
0.17682648 -0.089761704 -0.11030869
0.18495324 -0.091915049 -0.1122822
0.17577597 -0.070565112 -0.10832371
0.18536425 -0.072013468 -0.11004381
0.23181646 -0.1411155 -0.091539234
0.24579273 -0.14218576 -0.088822432
0.19180234 -0.12331218 -0.089665338
0.20986022 -0.12930444 -0.090412065
0.23177367 -0.13800481 -0.085622527
0.24885537 -0.13779548 -0.081584975
0.17788361 -0.10579558 -0.089299798
0.18881613 -0.10981013 -0.091201551
0.2030248 -0.11737588 -0.094016463
0.17610879 -0.089956693 -0.089805454
0.18714531 -0.093049668 -0.090017311
0.18328454 -0.071311302 -0.0879054
0.17684402 -0.057416361 -0.088683769
0.19652541 -0.033178229 -0.080736682
0.13041776 0.0088316537 -0.089547016
0.23649091 -0.14073278 -0.075255439
0.25202209 -0.14070557 -0.079422906
0.19444299 -0.12201196 -0.070757613
0.2098701 -0.12447979 -0.069751494
0.22849002 -0.13005295 -0.069545463
0.24633919 -0.13692649 -0.071315706
0.17680252 -0.10438538 -0.070590079
0.18824947 -0.11016288 -0.070196062
0.20759234 -0.11587109 -0.068774603
0.17521647 -0.089791022 -0.07178022
0.18645965 -0.092330799 -0.070073746
0.17197634 -0.068346851 -0.069994301
0.18219568 -0.071456827 -0.073931329
0.17469531 -0.053806752 -0.068180539
0.18751846 -0.049749017 -0.069136843
0.19154161 -0.034464046 -0.066781826
0.21480592 -0.014229717 -0.073755428
0.22718196 -0.0047276886 -0.069923058
0.22769284 -0.14164394 -0.041393556
0.2519339 -0.14664419 -0.042529151
0.26299447 -0.14992592 -0.040625989
0.21288733 -0.12499975 -0.051880974
0.22895749 -0.13103504 -0.049651057
0.24325582 -0.13795978 -0.040668748
0.17891103 -0.1018429 -0.053337619
0.19198044 -0.10877133 -0.051545501
0.20824857 -0.11251205 -0.049339354
0.22448586 -0.11913329 -0.045840442
0.17520474 -0.09038499 -0.050059669
0.18781136 -0.092475466 -0.050729904
0.16993955 -0.069941811 -0.049793389
0.17506568 -0.051808339 -0.049877264
0.18663216 -0.046934634 -0.048188526
0.17842305 -0.035412312 -0.043719828
0.19161673 -0.032961722 -0.049437508
0.20645709 -0.025323009 -0.049397454
0.21575013 -0.015913028 -0.049848624
0.23145515 -0.14034399 -0.03886044
0.25103325 -0.1426892 -0.030602993
0.27027363 -0.14453575 -0.029652122
0.29029232 -0.14440648 -0.027811013
0.21453702 -0.12619887 -0.029560372
0.22970639 -0.13052961 -0.029627889
0.24792653 -0.13618116 -0.027005577
0.27136743 -0.13763633 -0.025199361
0.28933334 -0.13701655 -0.023178335
0.19319843 -0.10595345 -0.029883491
0.20819825 -0.11105755 -0.031200644
0.22014214 -0.11623667 -0.030502494
0.17781317 -0.088188328 -0.03232595
0.18932934 -0.0904589 -0.030258629
0.20113379 -0.091272838 -0.027677804
0.17171894 -0.068594165 -0.030133054
0.17402515 -0.054986496 -0.030152107
0.18732716 -0.047299195 -0.028503785
0.19299145 -0.03563625 -0.032289688
0.20879869 -0.02648977 -0.030225882
0.21763808 -0.017714068 -0.035060119
0.23066375 -0.010037078 -0.031081507
0.27747366 -0.14001283 -0.015565552
0.28924561 -0.14112726 -0.017020322
0.21225333 -0.12229519 -0.017421089
0.23342618 -0.12602229 -0.013193399
0.24945395 -0.13000569 -0.011059063
0.26938054 -0.13216823 -0.0077616065
0.29001918 -0.13205093 -0.0081857657
0.19798303 -0.10310574 -0.013120871
0.21065165 -0.11011984 -0.0099969227
0.22765732 -0.11420681 -0.0071716546
0.24149823 -0.11481802 -0.0028433381
0.17993541 -0.083444029 -0.019934602
0.19204938 -0.08869078 -0.011977521
0.2076416 -0.091231108 -0.0076730452
0.1715945 -0.067635655 -0.013326509
0.20614909 -0.073345199 -0.0042460999
0.17184718 -0.055735309 -0.0087612597
0.18984583 -0.051267378 -0.010426009
0.19443768 -0.038822837 -0.019927429
0.21041417 -0.03213289 -0.0092569822
0.23872721 -0.12238207 0.0028693974
0.24981271 -0.12319869 0.0039034812
0.27135697 -0.12668009 0.0075639826
0.29005751 -0.12733413 0.0076225135
0.21165276 -0.1042731 0.0020050011
0.23140059 -0.10809416 0.0085167577
0.24819534 -0.11148372 0.012162017
0.26623595 -0.11451674 0.015936939
0.28863904 -0.11890852 0.017394099
0.19906278 -0.083476648 0.0016640574
0.21207602 -0.08913181 0.0077007711
0.22854097 -0.091891207 0.01179387
0.24832398 -0.09734486 0.016956577
0.17146961 -0.06465847 0.0096949078
0.19789022 -0.069987923 0.0023603942
0.2109486 -0.069870651 0.010090956
0.22689362 -0.071179375 0.016038651
0.17702086 -0.054273874 0.0052009919
0.19067056 -0.051371347 0.0085475566
0.22716613 -0.049046069 0.015883196
0.21237102 -0.033727515 0.007543256
0.27527905 -0.12143683 0.020587239
0.28952551 -0.12161048 0.020061843
0.25332189 -0.10495894 0.024995701
0.27098143 -0.10842501 0.029327257
0.28990707 -0.11133868 0.030996591
0.23171316 -0.086946867 0.023441656
0.24940562 -0.090099528 0.030280523
0.26752031 -0.092381649 0.037327792
0.17864892 -0.069623679 0.02573557
0.19027318 -0.068810239 0.034039754
0.21790001 -0.067712814 0.020668745
0.23147696 -0.070227079 0.028340317
0.24722882 -0.070814401 0.034801714
0.19656828 -0.054253466 0.024845311
0.23154099 -0.049650788 0.029669689
0.24516279 -0.049637005 0.034330927
0.21553273 -0.039071895 0.022502052
0.24888858 -0.028923523 0.030598829
0.29643619 0.041020006 0.038256064
0.27848914 -0.10074971 0.043051992
0.29037964 -0.10282134 0.041632961
0.21168549 -0.082855381 0.057444647
0.2582823 -0.087684482 0.041359037
0.27158919 -0.088050626 0.047634099
0.28904715 -0.090600058 0.051329494
0.19776399 -0.074000672 0.043513268
0.21009442 -0.069264226 0.051159464
0.25252882 -0.06941539 0.047142625
0.26933953 -0.07136476 0.051863343
0.28339183 -0.074977957 0.055484496
0.2519978 -0.048811901 0.049007196
0.26735142 -0.053143162 0.056832392
0.25098655 -0.030344622 0.049638741
0.26453587 -0.027749283 0.052035104
0.26925281 -0.0094293505 0.049109589
0.28117841 -0.004151985 0.059940472
0.27797884 0.029009229 0.052702859
0.28829336 0.03135442 0.045745045
0.27773017 0.041952312 0.058735363
0.2901445 0.048668955 0.051001642
0.25538257 0.074381225 0.059570216
0.26994744 0.070524238 0.055702783
0.29188892 0.071272545 0.050434377
0.25825769 0.090395816 0.058772352
0.27215245 0.089981981 0.052512601
0.28748688 0.089743495 0.048077345
0.21492036 -0.08309374 0.060743496
0.2236518 -0.083971724 0.069201596
0.29291931 -0.082737602 0.066220008
0.22652563 -0.069563195 0.069675967
0.27304474 -0.066665344 0.062808998
0.29124376 -0.068994217 0.068868265
0.23353907 -0.050603531 0.068206184
0.25121516 -0.041787814 0.068346158
0.27180243 -0.050730485 0.067852832
0.28948811 -0.052773714 0.072569482
0.2516045 -0.03230584 0.067120329
0.27344814 -0.03000077 0.06703452
0.28711075 -0.030079937 0.073137589
0.2828846 -0.0081415232 0.071206912
0.27140182 0.010429204 0.070366077
0.27114537 0.028341824 0.0682199
0.28264439 0.02893256 0.067296892
0.25437549 0.055015396 0.073092811
0.27125078 0.051049538 0.06860622
0.28358603 0.051496502 0.064082488
0.25177351 0.068886898 0.066143066
0.26855126 0.068674855 0.069299676
0.29247776 0.060204551 0.060523614
0.25640815 0.0882053 0.065881766
0.26553145 0.086782895 0.067583166
0.23554102 -0.081616946 0.081281133
0.24691476 -0.087972432 0.085449226
0.23740801 -0.068830341 0.082167163
0.24582128 -0.04830585 0.085074246
0.25428826 -0.031474873 0.085763425
0.29089662 -0.026674315 0.087376691
0.25642323 -0.0072041648 0.087092102
0.27549914 -0.0067396364 0.087635867
0.28293455 -0.014334805 0.089368418
0.25641561 0.012287715 0.092709079
0.26631823 0.010724097 0.089603133
0.24975491 0.031741459 0.095434189
0.27102521 0.029658305 0.091458544
0.28348845 0.033095933 0.083681539
0.23725247 0.056812719 0.089093655
0.2495154 0.049806416 0.087694079
0.26982182 0.047540434 0.08646486
0.2828095 0.048174728 0.08478684
0.23837987 0.06366384 0.081462309
0.25265345 0.072668076 0.088806137
0.26480231 0.07042259 0.080021948
0.25669539 0.091968097 0.094079137
0.26403904 0.092136644 0.088570036
0.2943837 -0.021492179 0.11255085
0.29112095 -0.016784063 0.10896505
0.25614685 0.013694942 0.10197409
0.26470578 0.0041964254 0.10468388
0.24885812 0.027684927 0.10030103
0.29551911 -0.022100836 0.12068392
