# .PCD v0.7 - Point Cloud Data file format
VERSION 0.7
FIELDS x y z rgb normal_x normal_y normal_z curvature
SIZE 4 4 4 4 4 4 4 4
TYPE F F F F F F F F
COUNT 1 1 1 1 1 1 1 1
WIDTH 505
HEIGHT 1
VIEWPOINT 0 0 0 1 0 0 0
POINTS 505
DATA ascii
0.27634224 -0.0046761162 0.094068773 1.0768483e-38 -0.81435251 -0.5428471 0.13540988 0.010719415
0.25660953 0.0063846298 0.091175288 1.2796055e-38 -0.78894615 0.35935947 -0.49842221 0.0063618133
0.26261947 0.0067910254 0.095967174 1.0492976e-38 -0.75553811 -0.65265024 -0.043974578 0.0078576813
0.27148369 0.0014559552 0.094611973 1.0677006e-38 -0.7892018 -0.59501666 0.0086908396 0.0074650864
0.25622165 0.018190801 0.094242871 1.1876631e-38 -0.84661305 -0.50065309 -0.1805134 0.012534118
0.26342282 0.018988771 0.092061438 1.0584094e-38 -0.59410542 0.34312671 -0.72753197 0.020665672
0.25205153 0.024710476 0.097639248 1.1046873e-38 -0.82677943 -0.44271532 -0.34704328 0.012292364
0.2649335 0.029349962 0.095332533 7.8211106e-39 -0.29827884 0.15953609 -0.94105154 0.048407007
0.24534774 0.036620796 0.096969202 9.755058e-39 -0.65923184 -0.44556284 -0.60565221 0.0037360257
0.25186548 0.033893108 0.091694124 9.7561384e-39 -0.72870576 -0.40390363 -0.55303687 0.0074729766
0.27060685 0.030359691 0.092408702 7.544888e-39 -0.35960075 0.082136668 -0.92948419 0.053113997
0.24205106 0.046455145 0.091946736 1.0862485e-38 -0.59361988 -0.48688737 -0.64074659 0.0021419204
0.26520562 0.040488638 0.092254058 7.7289219e-39 -0.24139558 -0.23670417 -0.9397862 0.02526997
0.23570733 0.054041743 0.092378289 1.2520921e-38 -0.59441811 -0.49153906 -0.63640827 0.0021310439
0.25072256 0.050341554 0.090693288 8.7430669e-39 -0.37795904 -0.26863241 -0.88599306 0.017633444
0.24858654 0.067224212 0.090026237 9.5728247e-39 -0.50610584 0.055798132 -0.86066449 0.019266337
0.24897119 0.074782372 0.091803133 9.4806333e-39 -0.62082177 0.14250825 -0.77089024 0.015979769
0.25441605 0.079372659 0.090181857 9.6657406e-39 -0.63140804 0.28553912 -0.7209655 0.0076535963
0.25612524 0.08811602 0.093039744 8.6526761e-39 -0.59391916 0.31531674 -0.74015903 0.005535204
0.25726557 0.095820174 0.095118538 8.6523188e-39 -0.59391958 0.31532663 -0.74015445 0.005527027
0.26083609 0.099265918 0.094072863 9.0268788e-39 -0.59392422 0.31533095 -0.74014884 0.0055226339
0.26023394 0.10545454 0.09636762 8.375397e-39 -0.59392715 0.31532761 -0.74014801 0.0055250428
0.99234241 0.25108162 0.096426748 5.8126323e-39 -0.75106895 -0.17849229 0.63563824 0.020359429
0.99181288 0.26231605 0.098618083 6.2725314e-39 -0.77812988 -0.31818795 0.54154426 0.039132796
0.99213845 0.27151412 0.09977632 6.7327851e-39 -0.9108445 -0.22536848 0.34579116 0.049476977
0.99047226 0.28131932 0.099635586 6.6416657e-39 -0.93453866 -0.34553933 0.085089251 0.051211517
0.98536849 0.29353505 0.092575818 6.4572786e-39 -0.88289702 -0.4005124 -0.23766153 0.017650427
0.97906208 0.3018809 0.092033334 6.4565625e-39 -0.84423792 -0.44627711 -0.29681483 0.0085708247
0.97255504 0.31513858 0.091478743 6.8249821e-39 -0.942258 -0.12756123 -0.26732993 0.030744847
0.95384359 0.32624879 0.090831093 7.6533051e-39 -0.74533826 -0.11288124 -0.65706068 0.04653313
0.97595543 0.3281683 0.091807224 7.1012089e-39 -0.96190131 0.16340257 -0.21919255 0.028165611
0.94729578 0.33277848 0.099073373 7.4707089e-39 -0.9173488 -0.010768153 -0.39793885 0.062616743
0.94749868 0.34368595 0.0975549 7.3774342e-39 -0.97028714 -0.019780464 -0.24114615 0.043027304
0.98258108 0.34070089 0.092417158 7.0097307e-39 -0.97883439 0.19503136 -0.062015947 0.027403831
0.95057583 0.35580462 0.096325435 7.9288102e-39 -0.99410641 0.097030237 -0.04834839 0.023032237
0.98702937 0.35606974 0.096177243 7.1026508e-39 -0.93998742 -0.3154946 -0.0093678832 0.045303419
0.95261025 0.36394525 0.095494233 8.0217247e-39 -0.99604678 0.086944222 -0.018207878 0.020854622
0.97420698 0.36868709 0.091732301 7.1022921e-39 -0.71968418 -0.68587488 0.10784313 0.010040288
0.98036861 0.36176428 0.091160707 7.0100951e-39 -0.79689205 -0.60083383 0.062942058 0.037727796
0.95288002 0.37451792 0.090598218 8.0220876e-39 -0.99666548 0.067750625 0.045472398 0.0074011544
0.96601081 0.37587124 0.091013104 7.4699956e-39 -0.78803146 -0.61474913 0.02039345 0.012042472
0.95797074 0.38622376 0.096588761 7.4681949e-39 -0.93802941 -0.15296093 0.101258 0.0041380953
0.95686495 0.39519262 0.093477599 7.837339e-39 -0.96571583 -0.11712995 0.079131827 0.0057347822
0.97586024 0.39879328 0.091048352 8.7592897e-39 -0.88954765 -0.43819314 0.12919663 0.035400286
0.955594 0.40868044 0.093873464 7.7462224e-39 -0.98346901 -0.10124093 0.042251527 0.0087992996
0.97426283 0.40546095 0.090602852 8.9436809e-39 -0.90897888 -0.40086612 0.11429555 0.029775599
0.95283777 0.41775957 0.094780505 7.5614654e-39 -0.94559973 -0.17552853 -0.16622289 0.019328648
0.9690944 0.41424128 0.093041576 8.5752614e-39 -0.87494934 -0.4730846 0.10322111 0.031997077
0.95415235 0.42657939 0.092608534 7.5614696e-39 -0.91701031 -0.30501321 -0.080557361 0.019786462
0.93951994 0.4394713 0.09841267 6.6380727e-39 -0.6206001 -0.43579817 -0.65187085 0.023338696
0.9480775 0.43543541 0.0949708 7.376358e-39 -0.89423817 -0.36073759 -0.19638336 0.024911253
0.9521575 0.43957728 0.091634594 7.928813e-39 -0.97223812 -0.23093773 0.037694454 0.017696412
0.92840207 0.44775429 0.097343065 7.007214e-39 -0.52334028 -0.55760717 -0.64435166 0.017439213
0.94437218 0.44757378 0.092397779 7.1908822e-39 -0.83646131 -0.29419389 -0.38840747 0.025540574
0.95078033 0.44473299 0.095317133 8.3897939e-39 -0.95005769 -0.24483155 0.13727927 0.031835761
0.91923177 0.45671427 0.096467324 6.732425e-39 -0.66236728 -0.4951902 -0.56218886 0.035193775
0.92933047 0.45836213 0.091096245 6.178175e-39 -0.47253042 -0.5420714 -0.6948911 0.010757567
0.93487996 0.45428619 0.091598071 6.1778121e-39 -0.49211848 -0.55718011 -0.66885704 0.013020621
0.9434855 0.45549878 0.094499446 7.9284528e-39 -0.79002398 -0.34871638 -0.24318819 0.032057546
0.91104263 0.46595335 0.095688999 7.0093692e-39 -0.79470485 -0.42549863 -0.43289146 0.063157119
0.92341483 0.46553719 0.090567708 6.7313474e-39 -0.52626431 -0.49095798 -0.69352901 0.011000104
0.93727964 0.46850038 0.097321294 8.3897911e-39 -0.83558553 -0.10500441 -0.53923172 0.036089364
0.94256294 0.46514857 0.092360049 8.6660165e-39 -0.84997618 -0.29954985 -0.21464017 0.046863064
0.90658754 0.47362354 0.095273606 7.2845197e-39 -0.86675817 -0.34695309 -0.35826501 0.063010618
0.9349246 0.47539392 0.0951638 8.6660165e-39 -0.64335525 -0.61415106 -0.2619414 0.051874802
0.94385314 0.47567484 0.091180213 8.1131944e-39 -0.82160425 -0.13894936 -0.54594946 0.033857495
0.90511227 0.48649451 0.09447068 8.2972325e-39 -0.82751858 -0.25261456 -0.445889 0.036821529
0.91388375 0.48429176 0.094815671 8.8493287e-39 -0.55041623 -0.56280738 -0.60241491 0.035239592
0.93249917 0.48797888 0.092750259 8.4808965e-39 -0.63839102 -0.41719112 -0.64684498 0.033747565
0.90381312 0.49636674 0.093582876 8.2975885e-39 -0.87399101 -0.14628439 -0.39716154 0.032710377
0.92650032 0.49569613 0.095046319 8.8493161e-39 -0.61637574 -0.5022766 -0.60646433 0.03318831
0.89767778 0.50952792 0.099634536 9.1259058e-39 -0.8837868 -0.13189645 -0.44891468 0.025196774
0.90619707 0.50536603 0.095035292 8.6656507e-39 -0.92250818 -0.053505849 -0.20289682 0.02626171
0.91284364 0.50100607 0.090085827 8.8493231e-39 -0.58588636 -0.28593034 -0.75827497 0.0065164524
0.92078626 0.5058952 0.091856606 8.6660095e-39 -0.59873664 -0.5558427 -0.57667434 0.029605685
0.89888597 0.51674527 0.092173196 9.12591e-39 -0.80515164 -0.28216785 -0.52164358 0.041500285
0.90941972 0.51388544 0.094596364 8.8500462e-39 -0.40859157 -0.53157806 -0.74194187 0.034738827
0.91072613 0.51581627 0.095809214 8.6649333e-39 -0.99876416 0.00089389354 0.049693201 0.016984038
0.88044804 0.5262481 0.095080413 8.9425991e-39 -0.35159677 -0.098788127 -0.93092459 0.058140807
0.89779896 0.52468944 0.097625859 9.0329913e-39 -0.91801924 -0.17140959 -0.34992713 0.035602108
0.9085601 0.5236057 0.091434859 8.4823357e-39 -0.9972986 -0.055106014 -0.048565924 0.045968108
0.8969723 0.53939128 0.09549854 9.3102929e-39 -0.99587381 -0.068909772 0.059048191 0.01746835
0.90723735 0.53624576 0.092908762 8.6660109e-39 -0.89090443 -0.38880491 -0.22071789 0.059895612
0.88512421 0.54013461 0.095059313 9.0337158e-39 -0.54001081 -0.027725838 -0.84120125 0.096103542
0.89763796 0.54505926 0.094609253 9.1262673e-39 -0.75112331 -0.58042622 -0.3145141 0.044255178
0.89363885 0.55356354 0.09320648 8.8503979e-39 -0.90137392 -0.092616007 -0.1190415 0.05126448
0.88546962 0.56582236 0.096562698 8.9422376e-39 -0.89019978 -0.40379077 -0.038968191 0.066127643
0.89535695 0.56159097 0.092182674 7.7458524e-39 -0.94267255 0.0076305158 -0.33363199 0.11512532
0.90051627 0.56176835 0.099968053 8.851121e-39 -0.99347389 0.02669267 -0.11089253 0.039680995
0.8799141 0.57063323 0.092941672 8.3897855e-39 -0.93885171 -0.31368554 0.14198183 0.048436571
0.8817662 0.57500088 0.099288747 8.4812525e-39 -0.8749736 -0.44880795 -0.16652526 0.066999368
0.89657164 0.57543898 0.0917577 8.2061201e-39 -0.96023715 -0.26966029 -0.03572724 0.059774168
0.90236312 0.57068038 0.099150516 8.9422376e-39 -0.99341321 -0.075800732 -0.085933313 0.041844681
0.87818658 0.58048815 0.09484338 8.4819755e-39 -0.89902526 -0.42986792 -0.083469339 0.060553696
0.90061295 0.58218497 0.095007114 8.5738124e-39 -0.94302243 -0.23404205 -0.23650178 0.037624691
0.87495261 0.5904538 0.095571332 8.2039495e-39 -0.89409828 -0.40385735 -0.19361682 0.049135871
0.89375275 0.59485137 0.09075851 8.3901498e-39 -0.9547019 -0.22174048 -0.045226481 0.032939978
0.90018737 0.59215838 0.092458375 8.1139147e-39 -0.94679904 -0.25715908 -0.19349626 0.039469566
0.86535871 0.60369825 0.096159637 7.0965229e-39 -0.83421743 -0.40916893 -0.36916685 0.024535712
0.87114596 0.60002077 0.094198681 8.018482e-39 -0.86331028 -0.42820171 -0.26709285 0.040168386
0.88909745 0.60523719 0.095361784 7.373477e-39 -0.73410559 -0.48498517 -0.45901889 0.029535465
0.89190525 0.60334259 0.096283168 7.1905248e-39 -0.88821995 -0.25249788 -0.29184675 0.034272455
0.87951827 0.6185869 0.095077939 8.0188422e-39 -0.62320304 -0.59226292 -0.51072752 0.013929913
0.88493323 0.61065346 0.097209133 8.1103217e-39 -0.6421622 -0.51797426 -0.56509316 0.016798662
0.89163291 0.61137807 0.096170843 7.928806e-39 -0.9747417 0.02266657 -0.20312554 0.02883504
0.87328458 0.62685168 0.090490423 7.7440532e-39 -0.69376934 -0.58218491 -0.42396325 0.018033627
0.89136004 0.62254435 0.095704816 7.9280955e-39 -0.94318247 -0.11619954 -0.31129462 0.033194967
0.85981899 0.63414806 0.097914271 8.3879904e-39 -0.83162385 -0.39677483 -0.3885504 0.019952724
0.8910774 0.63375151 0.09523607 8.2958074e-39 -0.92323047 -0.23401907 -0.30476332 0.037000529
0.85500789 0.64380121 0.097872727 8.0202869e-39 -0.94837916 -0.22759634 -0.22085465 0.014947919
0.88784701 0.64277476 0.094505914 7.8359027e-39 -0.86280972 -0.30986926 -0.39942503 0.056621034
0.8550874 0.65393513 0.094379716 7.9295318e-39 -0.94626856 -0.19195151 -0.26025066 0.017157188
0.88552308 0.65247411 0.093857877 7.5611122e-39 -0.87054574 -0.23670523 -0.43141717 0.065447025
0.85372573 0.66345042 0.093975894 8.1135644e-39 -0.95545882 -0.10967134 -0.27399039 0.02256717
0.88274378 0.66050535 0.094292231 7.9291801e-39 -0.82991862 -0.23018572 -0.50818288 0.066191681
0.85570914 0.67573231 0.097435579 8.3894352e-39 -0.70970297 -0.31851161 -0.4976708 0.02099395
0.87540305 0.67509001 0.095005147 8.2979598e-39 -0.58178937 -0.49355754 -0.64646882 0.044430323
0.88210493 0.67030501 0.091691278 8.113214e-39 -0.74364853 -0.37386703 -0.55426544 0.059886731
0.84712905 0.68703371 0.099486716 8.3908729e-39 -0.68960655 -0.53065091 -0.49280053 0.035511278
0.85417348 0.68424863 0.094966412 8.4816308e-39 -0.64770406 -0.38870883 -0.55880803 0.016821638
0.86817771 0.6807214 0.093928747 8.2972367e-39 -0.43867618 -0.51002783 -0.73988837 0.010635686
0.84744549 0.6941672 0.095707953 8.2064802e-39 -0.77672547 -0.31688228 -0.43398097 0.024041096
0.85138017 0.69352919 0.092966013 8.7585736e-39 -0.93710363 0.01872465 -0.34854865 0.013473285
0.8434605 0.70175004 0.093294315 8.0228135e-39 -0.68523848 -0.44334611 -0.57364649 0.030803785
0.85143578 0.70414889 0.096634731 8.9422488e-39 -0.95210129 -0.043159638 -0.29424366 0.02172048
0.85417122 0.71736354 0.092764966 8.7589338e-39 -0.88393688 -0.37431917 -0.28025103 0.045151908
0.8457045 0.72657824 0.091990352 8.6667339e-39 -0.69593787 -0.67700136 -0.2296505 0.071996897
0.83367383 0.73142123 0.092623442 8.7589324e-39 -0.66431999 -0.71401727 0.070884161 0.069258034
0.82595587 0.74082488 0.091388695 8.6660207e-39 -0.90897202 -0.33956778 0.24179237 0.045112889
0.82799202 0.75501376 0.093370192 8.3901512e-39 -0.9764089 -0.15926658 0.14580743 0.035098795
0.82830012 0.76372325 0.095671408 7.7444273e-39 -0.97684067 -0.20365073 0.065640897 0.0385461
0.82738805 0.77095723 0.094566725 8.2064859e-39 -0.95452875 -0.27932906 -0.10416363 0.054411523
0.82515264 0.78103155 0.092807464 8.6671067e-39 -0.8888998 -0.28092137 -0.3618567 0.051353559
0.81274676 0.79074818 0.098621093 8.7629064e-39 -0.63896221 -0.44077507 -0.63043213 0.027186928
0.8212949 0.7924239 0.091618948 8.7589464e-39 -0.86444342 -0.24980597 -0.43627334 0.040081929
2.5537934 -0.54254425 0.10496733 2.950979e-39 -0.092520319 0.99213248 -0.084339254 0.14927162
2.6115885 -0.53871667 0.10610218 2.8587834e-39 -0.60640955 -0.028264165 0.79464984 0.17493951
2.6079381 -0.52347994 0.10508413 2.9502602e-39 -0.53901488 -0.19595048 0.81918633 0.15681835
2.6042871 -0.50824308 0.10406617 2.8587834e-39 -0.7489894 -0.51254708 0.41989326 0.12130836
2.5897241 -0.49122065 0.1026806 4.0566105e-39 -0.72751123 -0.39960843 0.55771005 0.15679371
2.5969858 -0.47776937 0.10203011 9.8595374e-39 -0.72743767 -0.39977717 0.55768508 0.15679784
1.1881297 -0.32624167 0.101583 3.5927457e-39 -0.90181285 -0.050615866 0.42915219 0.049709328
1.1926646 -0.32620394 0.10885291 4.3288702e-39 -0.90911812 0.21764025 0.35391879 0.048910812
1.1889683 -0.31652105 0.10112328 3.5920268e-39 -0.80740118 0.13403299 0.57457685 0.029442156
1.195999 -0.31364688 0.10843187 4.4217917e-39 -0.8945545 0.20949599 0.39482117 0.03030251
1.1875739 -0.30629414 0.10050323 3.4080027e-39 -0.66043162 0.033819988 0.74940968 0.011918578
1.1979198 -0.30401596 0.10806706 5.3437424e-39 -0.91842633 0.10385597 0.38171583 0.025409954
1.1978748 -0.29241914 0.10517077 5.5284924e-39 -0.80073261 -0.17309965 0.52775282 0.014812824
1.1972916 -0.28389108 0.10429586 6.4511675e-39 -0.78012109 -0.28528202 0.51245797 0.017836701
1.2037228 -0.28009877 0.10882758 8.8471665e-39 -0.69113261 -0.4063046 0.5977059 0.0068438798
1.1933913 -0.27476794 0.10314405 6.7277544e-39 -0.72862351 -0.40266502 0.5366019 0.011320803
1.1878188 -0.26185659 0.10525026 8.3897911e-39 -0.8253426 -0.31279019 0.47007638 0.011589744
1.1941534 -0.26828593 0.10622604 1.0692161e-38 -0.63320494 -0.50126719 0.58973098 0.0094302306
1.1839375 -0.25448248 0.10461829 8.758568e-39 -0.83967167 -0.3001861 0.45259207 0.0074357507
1.1800625 -0.2471336 0.10398794 8.4819811e-39 -0.84463114 -0.2500284 0.4733752 0.0087836143
1.1775461 -0.23663153 0.10328629 8.5741838e-39 -0.88743067 -0.12913857 0.4424817 0.018359797
1.17503 -0.22612941 0.10258458 8.9433278e-39 -0.89627206 -0.062498011 0.43907887 0.027520943
1.1806068 -0.22596067 0.10999865 8.8514965e-39 -0.9796924 -0.11616072 0.16343021 0.049855217
1.1779653 -0.21631986 0.10227749 1.0047515e-38 -0.94391644 -0.020505812 0.32574934 0.046208255
1.1813554 -0.21583304 0.10955022 9.4039514e-39 -0.99582732 -0.070024975 -0.058517769 0.055183999
1.1793082 -0.20577988 0.10536842 1.1706679e-38 -0.97594869 -0.11588775 0.1263918 0.070067942
1.1803994 -0.1985907 0.10862642 1.2445323e-38 -0.93931609 -0.23188084 -0.252817 0.041323755
0.34754434 -0.075613789 0.10193253 2.6711509e-39 -0.648027 -0.46223271 -0.6048699 0.016838379
0.33702558 -0.043454908 0.1078093 1.5658754e-39 -0.89154649 -0.38732168 -0.21889025 0.10131065
0.32415581 -0.031364605 0.10080372 7.0839029e-39 -0.035275381 -0.76815951 0.63928598 0.0067417477
0.33302206 -0.030347958 0.10177168 5.1517617e-39 -0.063098162 -0.70207471 0.70930237 0.012072177
0.29697484 -0.021536967 0.10524062 8.7412634e-39 -0.42274189 -0.75238705 0.49983984 0.018906353
0.30490223 -0.023585346 0.10578612 6.9924317e-39 -0.24834803 -0.83226705 0.46679097 0.020870846
0.3174862 -0.025241623 0.10529301 5.3354369e-39 -0.091866598 -0.81219071 0.57344848 0.0098746968
0.3260406 -0.025009565 0.10479411 4.1401377e-39 -0.080261745 -0.76036674 0.64159876 0.02131997
0.33580235 -0.02481911 0.10574855 3.6806029e-39 -0.082454488 -0.71219456 0.68936837 0.057368364
0.34238186 -0.0249345 0.1034094 2.9448441e-39 -0.45117447 -0.54949331 0.22156915 0.097307406
0.2877793 -0.015874878 0.10141877 9.9387248e-39 -0.63875866 -0.66089332 0.35533369 0.015172417
0.29172406 -0.018196456 0.10451195 9.2944358e-39 -0.52279639 -0.76748931 0.33643484 0.032798022
0.3393521 -0.016171634 0.10979071 2.2094413e-39 -0.78311014 -0.29136366 -0.54940498 0.17125373
0.27690518 -0.0055708736 0.10621877 7.2697417e-39 -0.68803591 -0.72288203 0.063541308 0.0047199386
0.26470578 0.0041964254 0.10468388 8.7430669e-39 -0.72685164 -0.68585581 -0.012467931 0.0072611719
0.25614685 0.013694942 0.10197409 1.0862116e-38 -0.81382877 -0.57653469 -0.07273671 0.01310442
0.24885812 0.027684927 0.10030103 1.0124557e-38 -0.810422 -0.44388422 -0.38233894 0.011309397
1.0112181 0.24888867 0.10489395 5.720431e-39 -0.86398995 -0.2602222 0.43105209 0.076082177
1.003529 0.2538946 0.10415205 6.0892164e-39 -0.81293368 -0.31290859 0.49114871 0.036104072
1.0007706 0.26007608 0.1038992 6.5487554e-39 -0.79043221 -0.34167787 0.50840247 0.022093963
0.98369479 0.2930333 0.10231786 7.1019278e-39 -0.83116508 -0.49178231 -0.25336802 0.01722909
0.97861141 0.30173028 0.10184371 6.8253423e-39 -0.86745083 -0.39984289 -0.29606536 0.014856544
0.97304904 0.31019112 0.10132169 7.101569e-39 -0.96196741 -0.20200203 -0.18388513 0.026237292
0.973943 0.32407403 0.10145186 7.2852372e-39 -0.97301424 0.17746285 -0.10912989 0.016440231
0.95136333 0.34797132 0.10665142 6.8228241e-39 -0.98297393 0.1136429 -0.14438678 0.027808614
0.98067731 0.34001386 0.10216335 7.1941206e-39 -0.94953227 0.26325229 -0.17054804 0.0087456144
0.95321631 0.35802957 0.10327258 8.2990262e-39 -0.99059677 0.13200495 -0.03595563 0.022439651
0.98485988 0.35180843 0.10261101 7.1944765e-39 -0.97655898 -0.16869098 -0.13370055 0.035381522
0.95332575 0.36540249 0.1022545 8.2990276e-39 -0.99315834 0.11157318 0.034464043 0.012115957
0.97570735 0.36919779 0.1017626 7.6536582e-39 -0.70997822 -0.69015807 0.14004588 0.013307551
0.98173881 0.36106002 0.10233175 7.1937604e-39 -0.88701528 -0.46138349 0.018138818 0.054779068
0.95443594 0.37691301 0.10082144 8.29795e-39 -0.97819614 0.1272867 0.16410464 0.0019209867
0.96435457 0.37517968 0.10066287 7.8376963e-39 -0.7615577 -0.64189994 0.082230344 0.010699499
0.95765871 0.38617104 0.10328336 7.8376907e-39 -0.88529027 -0.46407372 0.0082565956 0.0090061221
0.95702505 0.39587951 0.10493223 7.560392e-39 -0.96435761 -0.052256882 0.055468138 0.0079665408
0.95207405 0.40768155 0.10278588 7.0079315e-39 -0.92615348 -0.31538212 -0.20681851 0.022277284
0.94772285 0.41597989 0.10560004 6.8231871e-39 -0.82209229 -0.39363936 -0.41135433 0.031385422
0.95929575 0.41000867 0.10392677 8.1139273e-39 -0.9881143 -0.017224792 0.15275291 0.0041610184
0.94385707 0.4278692 0.10201389 6.4540444e-39 -0.74804592 -0.3637259 -0.5550952 0.028099665
0.95843065 0.42092732 0.1022609 8.2979598e-39 -0.98458785 -0.090729579 0.14951582 0.003846219
0.93313044 0.43646741 0.10414808 7.1919654e-39 -0.59282118 -0.47616374 -0.64948547 0.016615145
0.95584625 0.43500713 0.10450418 8.5741866e-39 -0.96215475 -0.14024797 0.2231971 0.010600139
0.92394078 0.44556844 0.10321929 7.099767e-39 -0.5959745 -0.55005109 -0.58380419 0.029557804
0.91470349 0.45439374 0.1054171 7.1004872e-39 -0.83391845 -0.45138103 -0.31556553 0.050034266
0.95554304 0.45110399 0.10455098 8.5745453e-39 -0.879408 -0.18749046 0.43759459 0.035149831
0.90891242 0.46476912 0.10483652 7.1937661e-39 -0.91602069 -0.39694875 -0.05777334 0.059322633
0.94527888 0.46890122 0.10027737 8.758582e-39 -0.73013443 -0.56888711 0.37851164 0.079364769
0.95406926 0.46242166 0.10623054 8.8507749e-39 -0.79885966 -0.27395067 0.53551292 0.054336756
0.90756679 0.47400951 0.10473046 7.3777986e-39 -0.96342969 -0.24960729 0.097465336 0.046897832
0.91708428 0.47795761 0.10078769 9.2181098e-39 -0.5158087 -0.66419953 -0.5410918 0.036822673
0.92919493 0.47685575 0.10316888 9.3106656e-39 -0.51680446 -0.84336954 -0.14710847 0.05115461
0.93540657 0.47552976 0.1040829 9.0340773e-39 -0.64714444 -0.50439131 -0.12052459 0.041129518
0.94882667 0.47183049 0.10746814 9.2199161e-39 -0.71210259 -0.49188891 0.50095433 0.06666705
0.89872766 0.48819321 0.10602015 9.1266275e-39 -0.7840485 -0.3048619 -0.5406729 0.032303661
0.90526682 0.48274207 0.10452083 7.8376893e-39 -0.98166144 -0.13452385 0.13507079 0.0199719
0.9318307 0.48771626 0.10243002 8.9407957e-39 -0.74312025 -0.41886136 -0.52184999 0.028375128
0.89791882 0.49893364 0.10443342 9.034792e-39 -0.86265391 -0.19091202 -0.46705884 0.027461011
0.90399849 0.49314791 0.10363853 8.4823385e-39 -0.89472198 -0.12609288 -0.25078616 0.02470737
0.92949092 0.49748176 0.10177755 8.5727362e-39 -0.61585361 -0.50223273 -0.60703111 0.033385005
0.89648926 0.50611293 0.10654555 9.2188245e-39 -0.9091748 -0.1297681 -0.39567846 0.01883797
0.90795344 0.50078076 0.10488198 8.2979486e-39 -0.99998903 0.0012307789 0.0045337938 0.031151563
0.91023904 0.5086621 0.10830012 8.8511182e-39 -0.97687793 -0.12337326 -0.17460972 0.052443385
0.92169917 0.50773293 0.10048821 8.5745369e-39 -0.6302864 -0.55905837 -0.53869545 0.026333462
0.89656132 0.51365954 0.10556076 8.9415187e-39 -0.91435325 -0.095684975 -0.39344957 0.016356166
0.91301012 0.51472318 0.10443243 8.7574876e-39 -0.99263632 -0.076615512 -0.093825459 0.037202682
0.89654577 0.52546757 0.1073407 9.03335e-39 -0.96165872 -0.051973645 -0.26698482 0.013489903
0.90987861 0.52526075 0.10518775 9.0337088e-39 -0.89934647 -0.3337146 -0.28250733 0.061506256
0.90395045 0.53416014 0.1035403 8.7585666e-39 -0.75751674 -0.49074578 -0.4144364 0.038006365
0.89517945 0.54223949 0.10418559 8.7582023e-39 -0.76058197 -0.34518647 -0.40763816 0.029113224
0.88974673 0.55231363 0.10415605 8.6670814e-39 -0.76216996 -0.38288659 -0.52201039 0.050705601
0.89936602 0.55435187 0.10748621 8.0199128e-39 -0.95195556 -0.022655427 -0.305397 0.02688304
0.90049177 0.55404943 0.10098498 8.8511182e-39 -0.99612427 0.058173455 -0.065971464 0.043754626
0.88705659 0.56171691 0.10287245 8.7582023e-39 -0.84047645 -0.37439579 -0.3916977 0.079137877
0.89958262 0.56326729 0.10431266 8.0206288e-39 -0.9497655 -0.042972349 -0.30072588 0.052071523
0.86731178 0.57853937 0.10989898 7.9280843e-39 -0.69178009 -0.34124273 -0.63639116 0.011928008
0.87926626 0.5732795 0.10515019 7.4649439e-39 -0.77557361 -0.43417367 -0.45823443 0.05852313
0.89851224 0.5730828 0.10486471 6.8206549e-39 -0.89718586 -0.1849601 -0.40105784 0.034392647
0.90191078 0.57337314 0.10205571 8.0206316e-39 -0.95782501 -0.28681123 -0.017621905 0.049285777
0.86609602 0.58979344 0.10577039 7.9280843e-39 -0.77543402 -0.39518008 -0.49040809 0.018723214
0.87357914 0.58276707 0.10456102 7.1898018e-39 -0.75079197 -0.43657255 -0.49569735 0.03311919
0.88739806 0.58226365 0.1081427 8.112121e-39 -0.66003573 -0.37391117 -0.65156984 0.0059557166
0.8946147 0.58168578 0.1036733 7.2823561e-39 -0.87424755 -0.24086881 -0.34112886 0.040242523
0.85517251 0.59966797 0.10858421 8.3883464e-39 -0.81749427 -0.36859751 -0.44253686 0.017911263
0.86012489 0.59881961 0.10514221 7.9288088e-39 -0.79654151 -0.39863691 -0.45454407 0.015011217
0.88643867 0.59401828 0.10599387 7.8358943e-39 -0.73368126 -0.24105561 -0.6162104 0.024107561
0.89204705 0.59245062 0.10061457 7.7429812e-39 -0.83802253 -0.2810683 -0.43106371 0.052880745
0.87570035 0.60908204 0.10224765 8.4798203e-39 -0.61022353 -0.48488104 -0.62651217 0.0061135879
0.88110453 0.60119885 0.10438917 8.4798217e-39 -0.57326084 -0.43195432 -0.69626677 0.0030099754
0.86747664 0.61680216 0.10396831 8.6638543e-39 -0.71322107 -0.45332843 -0.53461111 0.023564529
0.87210667 0.61430478 0.10082603 8.6642116e-39 -0.62831014 -0.49011832 -0.60416096 0.0089130914
0.88579601 0.611992 0.10712797 8.2050383e-39 -0.81531143 -0.10770372 -0.56891751 0.018837802
0.86241758 0.62603378 0.10171389 8.3883464e-39 -0.76921678 -0.45118374 -0.45248064 0.018973241
0.8852995 0.62164086 0.10776929 8.1132028e-39 -0.76498729 -0.16486388 -0.62258685 0.020761127
0.87233651 0.63816851 0.10867006 8.2064704e-39 -0.57189721 -0.31083572 -0.75915396 0.013335518
0.88299751 0.6312471 0.10712586 8.4819853e-39 -0.67560828 -0.23866197 -0.69756287 0.021935914
0.85564101 0.64677072 0.10645457 8.4809063e-39 -0.99178475 -0.12636226 -0.019890636 0.018478272
0.86703825 0.64910823 0.10758892 8.1135658e-39 -0.60327047 -0.28691512 -0.74414003 0.023152201
0.87847692 0.6430158 0.10295751 8.2061215e-39 -0.60807848 -0.28070018 -0.74259543 0.022396091
0.85387784 0.65709072 0.10476812 8.2983115e-39 -0.9906022 -0.13636398 -0.010584578 0.020114105
0.86729527 0.65881598 0.10412023 8.2983199e-39 -0.57701522 -0.32222348 -0.7482338 0.015712248
0.87392133 0.65086901 0.10209853 8.2975955e-39 -0.61328578 -0.25536263 -0.7474426 0.019907273
0.85299551 0.66421235 0.1036778 8.4819839e-39 -0.98829848 -0.11933767 0.094998062 0.028929636
0.86203802 0.66774309 0.10627382 8.6674612e-39 -0.61724752 -0.4188433 -0.66601491 0.021870811
0.85240793 0.67562532 0.10517607 8.3901512e-39 -0.8738268 -0.22029775 -0.11642761 0.028536253
0.86543214 0.67067558 0.10030723 8.4823511e-39 -0.47446114 -0.42103723 -0.77305526 0.010960923
0.84668231 0.68307322 0.10453009 8.2064816e-39 -0.88164264 -0.31787419 -0.23788448 0.033741362
0.84359908 0.69550216 0.10577531 8.2983199e-39 -0.88630128 -0.34807363 -0.20445362 0.026327949
0.85028487 0.70550925 0.10898768 8.5734621e-39 -0.96831828 -0.16814123 -0.18463019 0.027071439
0.84813136 0.71727169 0.10926227 8.8496903e-39 -0.89080304 -0.32817119 -0.31428269 0.025266858
0.85095954 0.71479058 0.1035486 8.5749026e-39 -0.9235599 -0.23343685 -0.26538983 0.025204599
0.847036 0.72643864 0.10343613 8.4823455e-39 -0.84523278 -0.5199002 -0.12012263 0.050236974
0.83932453 0.73613745 0.102699 8.2972367e-39 -0.84004509 -0.54095596 0.041121855 0.055938251
0.83432579 0.74580908 0.10587846 7.9270193e-39 -0.9337244 -0.34285474 0.088079847 0.047044605
0.83057594 0.75450969 0.10393729 7.3734896e-39 -0.93098187 -0.35599801 0.054551542 0.038570009
0.82848144 0.76507282 0.10546159 8.0217387e-39 -0.82190984 -0.5124526 -0.24870981 0.049539074
0.80911142 0.77243292 0.1097034 9.4054004e-39 -0.53692853 -0.6933406 -0.48061055 0.045520965
0.82057428 0.77149975 0.10498791 8.4834413e-39 -0.70951706 -0.57238817 -0.41104406 0.048159443
0.80830216 0.78326821 0.10498042 9.0384185e-39 -0.55543387 -0.5907014 -0.58469939 0.033767857
0.81538725 0.78116256 0.10040786 8.6692731e-39 -0.62632966 -0.49510249 -0.60215008 0.036590938
2.5297115 -0.56102133 0.11739757 1.1705961e-38 0.19202544 0.95463389 -0.22759694 5.8140769e-05
2.5356147 -0.54833615 0.11516022 1.4472908e-38 -0.19202544 -0.95463389 0.22759694 5.8140769e-05
2.6069024 -0.50658846 0.11945296 3.408353e-39 -0.66460925 -0.48099753 0.57178319 0.10674598
2.5824981 -0.48797214 0.11761571 3.2250408e-39 -0.72597873 -0.40130499 0.55848825 0.15745437
2.5788758 -0.47285494 0.11660571 5.6206852e-39 -0.7259059 -0.40130198 0.55858523 0.15741725
2.5959501 -0.46087793 0.11639885 1.0322662e-38 -0.72704959 -0.40006351 0.55798578 0.15706037
1.1952729 -0.32549512 0.11773174 6.8192298e-39 -0.9526782 0.25495416 0.15541074 0.034829225
1.2005377 -0.31356317 0.11577559 7.006142e-39 -0.96673411 0.17403778 0.18744582 0.038520165
1.2027214 -0.30058947 0.11528913 7.8369775e-39 -0.95970768 0.11640957 0.25575367 0.035894286
1.2061994 -0.29091734 0.11294881 8.2035992e-39 -0.83289236 -0.19636586 0.44851002 0.017223939
1.2152075 -0.29063407 0.1189061 9.2181056e-39 -0.76493108 -0.3835271 0.51748168 0.030735398
1.2007107 -0.28336287 0.11429026 8.8507665e-39 -0.94160306 -0.12289888 0.31349564 0.023530273
1.2110152 -0.28306484 0.11734889 9.126982e-39 -0.73511308 -0.39438716 0.55142307 0.021998808
1.1959643 -0.2723887 0.11340491 8.7582107e-39 -0.87386417 -0.32001233 0.36599648 0.0086928383
1.2068298 -0.27552035 0.11579627 9.4964876e-39 -0.69135356 -0.40576696 0.59781551 0.0070057265
1.1907289 -0.26089144 0.11598194 9.0355206e-39 -0.86969149 -0.36307448 0.3317526 0.004857331
1.2004431 -0.26763409 0.11403363 9.9563895e-39 -0.65155476 -0.47723919 0.58967704 0.0095108449
1.1879442 -0.2536855 0.1154244 9.035878e-39 -0.86834848 -0.36309579 0.33225325 0.0056133755
1.1848158 -0.24352713 0.11117233 9.310667e-39 -0.88707203 -0.28014934 0.36690539 0.010585711
1.1800998 -0.23267885 0.11029539 9.4957841e-39 -0.93322474 -0.18202245 0.3097733 0.027256163
1.1760629 -0.21379422 0.11960129 8.7600128e-39 -0.92808807 -0.26258233 -0.26401311 0.030987909
1.171909 -0.20309752 0.11875325 8.943325e-39 -0.86440271 -0.26702917 -0.42603195 0.018683167
1.170233 -0.19610241 0.11828589 9.8638422e-39 -0.83684558 -0.34162408 -0.42776448 0.0091283033
1.1681606 -0.18693838 0.11651855 1.2536436e-38 -0.8128069 -0.3945516 -0.42857194 0.0061270939
1.1582088 -0.17401911 0.11975534 1.4380712e-38 -0.74478906 -0.47290227 -0.47080016 0.0087507414
1.1635218 -0.17539281 0.11327199 1.45651e-38 -0.7872557 -0.46243095 -0.40790462 0.0070656552
1.1493595 -0.16050969 0.111453 1.4380709e-38 -0.71273327 -0.50394422 -0.48790517 0.0075029363
1.1559458 -0.16744623 0.11577483 1.4380715e-38 -0.72665924 -0.48216006 -0.48863173 0.0091654491
1.1461337 -0.15304004 0.11430472 1.4565103e-38 -0.71760654 -0.50037646 -0.48438048 0.0076648346
1.1505483 -0.15975761 0.11844698 1.5117199e-38 -0.70280933 -0.50879276 -0.497181 0.0076170238
0.33581394 -0.041452616 0.11609719 4.6169561e-40 -0.8253575 -0.25209948 -0.50520378 0.055146527
0.33296505 -0.038525224 0.11384126 9.2159196e-40 -0.73999709 -0.42535579 -0.52103436 0.10842491
0.29179257 -0.02144739 0.11986108 2.9448413e-39 -0.32983479 -0.91133499 0.24632837 0.044248849
0.30585349 -0.022224436 0.11245296 4.5067664e-39 -0.21575396 -0.81325835 0.53906292 0.014293409
0.31457913 -0.020933583 0.11269747 3.4954956e-39 -0.045143656 -0.88582462 0.45082638 0.049280219
0.3252075 -0.020603275 0.11397466 2.7604515e-39 -0.062173292 -0.79049116 0.60527831 0.0069787172
0.2863239 -0.013475493 0.11301498 5.1521302e-39 -0.56923562 -0.807392 0.11756417 0.024476618
0.29865652 -0.019589424 0.11691451 3.1281522e-39 -0.22962463 -0.94074881 0.24952796 0.050018258
0.3089371 -0.01815033 0.11884724 1.7488261e-39 -0.17693879 -0.738006 -0.65118331 0.13775757
0.31648389 -0.018171692 0.11602515 2.1165296e-39 -0.082899638 -0.91280192 0.28242087 0.11093346
0.32187307 -0.017332941 0.11576965 2.0246927e-39 -0.28134683 -0.46947539 -0.38062951 0.12227294
0.33204043 -0.016991347 0.11164346 2.1168883e-39 0.10968376 -0.74861693 0.65386707 0.17046908
0.27600121 -0.0047645173 0.11308488 5.7960577e-39 -0.66540372 -0.74585944 0.027435983 0.0042587537
1.0127349 0.24235737 0.11848587 6.1806931e-39 -0.96887213 0.21665277 -0.11978556 0.14889675
1.0125939 0.25270531 0.11515231 6.273609e-39 -0.95450044 -0.15079615 -0.00067850947 0.11972725
1.002211 0.26388693 0.11073546 6.3658061e-39 -0.75519645 -0.55851597 0.34312999 0.042400599
1.0103478 0.26255617 0.11831213 6.3658061e-39 -0.88908476 -0.44922927 0.087870553 0.085368313
0.99561912 0.27246138 0.110077 6.8264185e-39 -0.81999451 -0.52357841 0.23124588 0.040174231
0.9885388 0.28190854 0.1115685 7.1033613e-39 -0.71998751 -0.68203223 -0.12825689 0.023390008
0.97932285 0.29173598 0.11171449 7.2863162e-39 -0.80082208 -0.53229147 -0.27449891 0.010363781
0.97390914 0.30535534 0.11118737 7.1937618e-39 -0.93893605 -0.23424008 -0.23952074 0.0196076
0.973737 0.32397965 0.11124788 7.1015648e-39 -0.96474862 0.17364877 -0.18240008 0.019438263
0.97950208 0.33957562 0.11193537 7.1948408e-39 -0.92076045 0.26510206 -0.28621861 0.011724414
0.98052424 0.35024008 0.11208931 7.3792293e-39 -0.94101262 0.038559288 -0.33616722 0.023465184
0.95561063 0.3641215 0.11137713 6.4540458e-39 -0.98674655 0.13971648 0.079139993 0.0067665046
0.97803831 0.36483839 0.11188401 7.65474e-39 -0.85935068 -0.44427437 -0.17487092 0.0449512
0.9560169 0.37789521 0.11010859 7.0075755e-39 -0.9781 0.13100386 0.16173494 0.0016813413
0.96706271 0.37616533 0.11075072 7.2852414e-39 -0.72795558 -0.68328708 0.049968462 0.022446575
0.95876509 0.38995612 0.11315595 6.1781778e-39 -0.81778407 -0.57034236 -0.077064067 0.034967776
0.96244168 0.38460174 0.11354037 6.178175e-39 -0.78836191 -0.61489958 -0.01960063 0.031629954
0.95585823 0.39518547 0.11502779 7.2845268e-39 -0.81074184 -0.32914343 -0.22556525 0.03111141
0.94532281 0.4069714 0.11601396 6.733148e-39 -0.64274067 -0.48375079 -0.58777636 0.01623317
0.9602828 0.40091434 0.11574367 8.5745439e-39 -0.9898836 0.058578581 0.12922493 0.004292368
0.93631625 0.41877833 0.11503734 7.1015718e-39 -0.64493996 -0.43221939 -0.63026881 0.0060140942
0.94045031 0.41614795 0.11123884 7.1026536e-39 -0.70497304 -0.46500045 -0.53552556 0.012357547
0.95847631 0.41136706 0.11398975 8.7589324e-39 -0.98828208 -0.057178069 0.1415243 0.0040257205
0.93284494 0.42618477 0.11361225 7.101569e-39 -0.66355419 -0.43240926 -0.61050642 0.0058995998
0.95859778 0.42650509 0.11194615 8.758575e-39 -0.97174776 -0.075589344 0.22353527 0.0064328578
0.92763948 0.43494779 0.11411718 7.1019306e-39 -0.72197592 -0.45756316 -0.51618326 0.017942367
0.92084557 0.44399834 0.11233021 7.378516e-39 -0.83898765 -0.43367881 -0.32866758 0.02589505
0.95812869 0.44585592 0.1127054 8.9433278e-39 -0.87402409 -0.082560986 0.47881693 0.017341753
0.91592646 0.45489058 0.11495789 7.2866805e-39 -0.96098703 -0.27042603 -0.058083743 0.038016252
0.96005476 0.45444918 0.11189479 9.0355235e-39 -0.78195548 -0.18409738 0.59552813 0.036087576
0.91481405 0.46430379 0.11487691 7.378516e-39 -0.93358427 -0.25845575 0.24823591 0.024212513
0.96648073 0.46647805 0.11848997 9.6805299e-39 -0.75881326 -0.21963356 0.61315876 0.039331663
0.91274476 0.47322518 0.1146809 7.5611122e-39 -0.9146148 -0.22517079 0.33577335 0.011426844
0.96460509 0.47328705 0.11722078 9.2199119e-39 -0.65589488 -0.33912262 0.67438698 0.043403707
0.90935117 0.4847635 0.11434312 8.2983101e-39 -0.9670285 -0.17447136 0.18551426 0.027853066
0.90824211 0.49414766 0.11426241 8.2986745e-39 -0.97825819 -0.20722049 -0.008398287 0.062423345
0.89496613 0.50489014 0.11638331 8.2961507e-39 -0.91881949 -0.13713238 -0.3645308 0.012598086
0.90808648 0.5040527 0.11429646 8.6656493e-39 -0.89958566 -0.23363952 -0.36899617 0.050806604
0.88958436 0.51957995 0.11999916 7.8348167e-39 -0.95628291 0.0080711693 -0.2923314 0.0089452453
0.89537096 0.51023602 0.11244714 9.2181056e-39 -0.93813765 -0.10776297 -0.32906646 0.0046309936
0.9051789 0.51577252 0.11401678 8.850042e-39 -0.83668393 -0.28889444 -0.46529549 0.043700788
0.8955636 0.52463269 0.11705188 8.574897e-39 -0.52432919 -0.4732933 -0.70658785 0.0057466174
0.88603294 0.53225935 0.1159358 7.6514988e-39 -0.55841058 -0.47719046 -0.67608482 0.0081822909
0.89064622 0.53006583 0.11776751 8.2947158e-39 -0.95798767 0.056755327 -0.28113803 0.00973114
0.8787033 0.54536355 0.11461294 7.7429742e-39 -0.61208296 -0.3598513 -0.70355201 0.011831019
0.88452911 0.54020816 0.11171947 8.7578436e-39 -0.59215814 -0.4248623 -0.6847195 0.013872865
0.89543408 0.54526836 0.11459047 8.2025258e-39 -0.96414202 0.063734271 -0.2576201 0.014203046
0.87595248 0.55623055 0.11383025 8.2954263e-39 -0.63074905 -0.29745829 -0.71166408 0.011536637
0.8939935 0.55249274 0.11670405 8.7564058e-39 -0.95137882 -0.082750924 -0.29449296 0.020334078
0.87025696 0.56075203 0.11620592 8.2965053e-39 -0.61510772 -0.25321177 -0.7466768 0.0049432097
0.89370352 0.56328535 0.11190429 8.2957892e-39 -0.89390874 -0.2109465 -0.39551073 0.026900386
0.86451685 0.57495618 0.11558077 8.2050341e-39 -0.70788682 -0.26247948 -0.65491891 0.015446572
0.87440515 0.57004768 0.11068758 8.3872618e-39 -0.68547827 -0.32609865 -0.65098327 0.020164624
0.88749111 0.57226145 0.11948498 9.1241107e-39 -0.7366336 -0.40929207 -0.538378 0.018953726
0.89192045 0.57367039 0.11019254 8.3890638e-39 -0.82007033 -0.27128291 -0.50387537 0.020891447
0.8610298 0.58728039 0.11522327 8.2043194e-39 -0.81128484 -0.28735194 -0.50916201 0.026533738
0.87448013 0.5866133 0.11635511 8.2961521e-39 -0.70660043 -0.26197338 -0.62293518 0.016005974
0.88388079 0.58492774 0.11275396 8.1117609e-39 -0.7029686 -0.24907529 -0.6490379 0.018421292
0.85552454 0.59756839 0.11659542 8.3887093e-39 -0.83589315 -0.30915171 -0.45355016 0.018294986
0.87468308 0.5965414 0.11521118 8.388345e-39 -0.71864074 -0.19521363 -0.64726162 0.012118255
0.86528659 0.60717785 0.11573647 8.7574876e-39 -0.79397094 -0.33513549 -0.48511857 0.015301896
0.88237715 0.60073179 0.11131141 8.021003e-39 -0.75894123 -0.08641123 -0.64539999 0.019159505
0.85979301 0.61603147 0.11781397 8.9407985e-39 -0.91875827 -0.26362336 -0.29391497 0.019473163
0.86270726 0.61719948 0.11172947 8.8482455e-39 -0.89962965 -0.32196656 -0.29496428 0.022424489
0.87472701 0.61553168 0.11605476 8.3887135e-39 -0.72535533 -0.19541246 -0.65505862 0.02670325
0.85842425 0.62753415 0.11388109 9.1255485e-39 -0.96258867 -0.23515454 -0.13463077 0.012681785
0.86363339 0.6247977 0.11254191 8.5727376e-39 -0.78594232 -0.34334797 -0.47982824 0.034266118
0.85737276 0.63545173 0.11220298 8.4809035e-39 -0.88595212 -0.23534617 -0.31071681 0.036125708
0.85655427 0.6459071 0.11398781 8.7567758e-39 -0.92368335 -0.15389815 -0.21413009 0.040699631
0.85621136 0.65586871 0.11629032 8.2061201e-39 -0.91427344 -0.21399313 -0.20488137 0.059864089
0.85512388 0.66827619 0.11265989 8.2986787e-39 -0.88294363 -0.23944585 -0.14161135 0.029421862
0.8466773 0.67548764 0.11480131 8.2068488e-39 -0.87580204 -0.4064334 -0.23546425 0.025382856
0.86008775 0.67978925 0.11995938 8.5748998e-39 -0.9796828 -0.16898212 0.10801153 0.047747992
0.84319097 0.68550271 0.11860917 7.9306178e-39 -0.90894926 -0.36585543 -0.19990247 0.023087457
0.85439217 0.68865758 0.11422867 8.1135587e-39 -0.95314682 -0.27083611 0.12121328 0.048865791
0.84139836 0.69522691 0.11803911 8.0210128e-39 -0.89394724 -0.38836923 -0.22366835 0.023709094
0.84621042 0.7085743 0.11650651 7.9255732e-39 -0.87137425 -0.21402028 -0.44147742 0.025879206
0.85153061 0.70105314 0.11867891 8.0192009e-39 -0.88122332 -0.38578087 -0.27316386 0.060190503
0.84443313 0.71502626 0.1153039 7.5553487e-39 -0.82380539 -0.2936683 -0.48487473 0.018558457
0.83894563 0.72710782 0.11913618 8.8493273e-39 -0.83550215 -0.29800808 -0.46165717 0.0097523192
0.84352243 0.72619343 0.11373598 6.7277474e-39 -0.84809291 -0.35556433 -0.39282611 0.017820802
0.83768755 0.73756003 0.11427418 8.111049e-39 -0.9027729 -0.34493458 -0.22044791 0.033043005
0.83362895 0.74640828 0.11553856 8.5723845e-39 -0.91562384 -0.3284255 -0.23188274 0.015929334
0.82782495 0.7576434 0.11606849 8.5727432e-39 -0.84607142 -0.50073689 -0.1756238 0.027813924
0.83185679 0.75284177 0.1143394 8.8478952e-39 -0.90684468 -0.40140659 -0.1284745 0.016133804
0.82235825 0.76469535 0.11388647 8.2975983e-39 -0.72541833 -0.65176988 -0.21453065 0.035199098
0.79495025 0.7764129 0.11854736 9.4993855e-39 -0.4586727 -0.72837436 -0.509009 0.036784206
0.80029929 0.77482724 0.11368938 9.4075486e-39 -0.49088731 -0.70248282 -0.51144069 0.040773362
0.81151068 0.77023476 0.11812622 8.9447782e-39 -0.54419863 -0.74950761 -0.37694329 0.036656164
2.6449146 -0.54257154 0.12273175 3.0406509e-39 -0.43896765 -0.069547378 0.89580721 0.11578708
2.6313636 -0.52544415 0.12130628 3.1317661e-39 -0.62824929 -0.51258498 0.58528566 0.089478463
1.1946751 -0.32245284 0.12625816 7.4678404e-39 -0.96548569 0.25452268 0.004535038 0.023362627
1.1978869 -0.31151801 0.12600034 8.2961563e-39 -0.97326159 0.20856935 -0.096231461 0.0090974905
1.1987096 -0.30167687 0.12559986 8.481628e-39 -0.98164225 0.17289013 -0.080545008 0.0087136813
1.1998544 -0.29470032 0.12888485 8.6667409e-39 -0.96970254 0.24269097 -0.027891621 0.011234355
1.2008855 -0.29107213 0.12410212 8.6670927e-39 -0.99497527 0.034586009 0.093956925 0.018332815
1.2237542 -0.29045057 0.1270785 9.4946967e-39 -0.74602312 -0.47728068 0.46438402 0.039074544
1.2019231 -0.28259569 0.12142418 8.8507665e-39 -0.96500725 -0.12318937 0.23148498 0.021697579
1.2217649 -0.28322902 0.12573242 9.6794481e-39 -0.79707181 -0.47275776 0.37573481 0.031894576
1.1971745 -0.27162296 0.1205261 9.1277135e-39 -0.91672128 -0.3078739 0.25462845 0.0088369483
1.2175629 -0.27563164 0.12415681 9.3117446e-39 -0.79727256 -0.47244596 0.3757011 0.031561844
1.2093381 -0.26653954 0.12580794 9.7716438e-39 -0.73318249 -0.54925793 0.40094778 0.022753434
1.1928003 -0.25640398 0.12650388 9.0351619e-39 -0.87039095 -0.4473677 0.2020501 0.013920592
1.2018461 -0.25849232 0.12389619 1.0601046e-38 -0.66875732 -0.68986928 0.27720773 0.061756659
1.1795934 -0.24066988 0.12290526 1.4655865e-38 -0.50409132 -0.8472088 0.16771755 0.080918789
1.1874665 -0.24589585 0.12205071 9.310667e-39 -0.89211875 -0.39153677 0.22543968 0.0099254735
1.1903476 -0.24905106 0.12515777 1.2350966e-38 -0.59640783 -0.76052082 0.25672153 0.055659492
1.182197 -0.23496693 0.12110472 9.3099481e-39 -0.93487424 -0.34915331 0.064046398 0.028338673
1.1791291 -0.22437586 0.12035266 8.8514895e-39 -0.94843847 -0.29158223 -0.12427488 0.029464956
1.1583745 -0.18670885 0.12729192 9.7716494e-39 -0.74786264 -0.36975423 -0.5513469 0.0040817657
1.164222 -0.18140516 0.1206043 1.2997778e-38 -0.75582397 -0.44120184 -0.48380888 0.0078968788
1.1567152 -0.179783 0.12682919 1.1061671e-38 -0.7236045 -0.40061328 -0.56205481 0.0052102949
1.1520544 -0.16919707 0.1259314 1.4010496e-38 -0.68505764 -0.49510458 -0.5343852 0.0087762913
0.31765065 -0.041929781 0.12644599 1.8428308e-39 -0.63345337 -0.48185277 -0.60543758 0.043248698
0.32322189 -0.044907257 0.12507606 6.4572814e-40 -0.65350693 -0.48594505 -0.58033276 0.046022769
0.33226976 -0.043415949 0.12284596 4.6205295e-40 -0.78408527 -0.28161299 -0.55069256 0.055755727
0.31991595 -0.037798077 0.12013208 4.6998051e-39 -0.62887013 -0.49745184 -0.59754831 0.046310376
0.32656616 -0.038866371 0.12022649 2.3041649e-39 -0.68659788 -0.43394712 -0.58332956 0.061315037
0.29551911 -0.022100836 0.12068392 2.3923934e-39 -0.28933388 -0.9131012 0.28728426 0.050008975
0.99567848 0.23834315 0.12979278 6.8260625e-39 -0.74363089 0.41146114 -0.52698463 0.034023095
1.0062816 0.24428999 0.12446188 6.6413097e-39 -0.91092533 0.22049704 -0.34870616 0.11582018
1.0115043 0.25592405 0.12513706 6.5501945e-39 -0.95529699 -0.14524487 -0.25751066 0.098155484
1.0038279 0.26778042 0.12095497 6.7342284e-39 -0.81993496 -0.57148945 -0.033263829 0.058435008
1.0107083 0.26265699 0.12507915 6.6416713e-39 -0.91204464 -0.37628454 -0.16304746 0.078983493
0.98927146 0.27983484 0.12044393 7.2859617e-39 -0.66403991 -0.74115223 -0.09871313 0.015772069
1.0000867 0.27367583 0.1205562 7.0104538e-39 -0.7259416 -0.68723089 -0.026883267 0.029584466
0.97625339 0.2885704 0.12551615 7.5629045e-39 -0.77206421 -0.56317216 -0.2922959 0.027962305
0.96986961 0.29903975 0.12047266 7.3785132e-39 -0.91855162 -0.30239904 -0.25459325 0.017481614
0.97161818 0.29283085 0.12064531 7.4707089e-39 -0.82712471 -0.48256284 -0.2880933 0.014375507
0.96870518 0.30990717 0.12255744 7.9313269e-39 -0.92458498 -0.11819437 -0.36217755 0.033836234
0.96791285 0.31864002 0.12683879 8.2082739e-39 -0.82782686 -0.087982967 -0.55404121 0.038892705
0.97049683 0.31949627 0.12065452 7.8394914e-39 -0.93195122 -0.010771054 -0.36242372 0.03414005
0.96812141 0.32546541 0.12690583 5.9955788e-39 -0.80286068 0.010371719 -0.59607643 0.042334925
0.9693048 0.33263457 0.12709565 5.6267935e-39 -0.67039967 0.086849466 -0.73689991 0.031736463
0.9723534 0.33537519 0.1242189 7.0097279e-39 -0.76435769 0.15698016 -0.57820755 0.022079673
0.97754717 0.34572166 0.12162158 8.0242358e-39 -0.84182596 0.11451005 -0.52438927 0.031072242
0.97460628 0.35496208 0.1245936 6.0866926e-39 -0.72683436 -0.10849146 -0.64961243 0.043950088
0.96895516 0.36995819 0.1272776 7.1001299e-39 -0.60221028 -0.33339834 -0.72538847 0.069013365
0.97108835 0.36049896 0.12748469 6.9157372e-39 -0.56448054 -0.24041553 -0.78965944 0.05122266
0.9661625 0.37916753 0.1237165 6.8253367e-39 -0.72138608 -0.64674908 -0.24762391 0.083811246
0.97589326 0.37259865 0.1215693 6.2703678e-39 -0.81276011 -0.54716814 -0.14192685 0.041152485
0.93578643 0.38725984 0.12961006 7.468911e-39 -0.62213302 -0.40943384 -0.66731888 0.079226315
0.95660698 0.38562185 0.12422032 7.1012089e-39 -0.55239356 -0.56498718 -0.60893691 0.083204463
0.96279091 0.38469937 0.12009368 6.8246234e-39 -0.73624784 -0.67594218 0.032268271 0.032441948
0.93309993 0.39280248 0.12929794 7.3777944e-39 -0.67073935 -0.35808077 -0.64952821 0.059138738
0.94757164 0.39549768 0.12317222 7.1934059e-39 -0.52129495 -0.47917104 -0.6978249 0.031481437
0.93695575 0.40446249 0.12352291 7.1930458e-39 -0.57915413 -0.40420565 -0.70795357 0.018460775
0.92559326 0.41616482 0.12532207 7.4703543e-39 -0.7098453 -0.33916467 -0.61732244 0.015416185
0.93244636 0.41255021 0.12301324 7.5611094e-39 -0.59648877 -0.39151731 -0.70065355 0.0085176304
0.91800898 0.42595798 0.1275584 7.5618325e-39 -0.81061679 -0.24339932 -0.5325948 0.020836029
0.92438293 0.42448384 0.124175 7.3781587e-39 -0.73039752 -0.30276474 -0.61225235 0.015220941
0.91641778 0.43512514 0.12741342 7.8376963e-39 -0.87185258 -0.13578862 -0.47056836 0.026648199
0.92174602 0.43436086 0.1218197 7.5611094e-39 -0.81860727 -0.2610884 -0.51158094 0.02768264
0.91652709 0.44347304 0.12435124 7.9298948e-39 -0.95424795 -0.1118235 -0.24774763 0.036875565
0.91811025 0.45585704 0.12463651 7.8380607e-39 -0.99685305 0.058186471 0.053835955 0.017783077
0.91963345 0.46660078 0.12490446 7.5614724e-39 -0.98545355 -0.1232363 0.11702163 0.046083648
0.91913313 0.47750133 0.12385765 7.8380509e-39 -0.95318973 -0.2673485 0.14125861 0.036225803
0.91259933 0.48745051 0.12413878 8.0220904e-39 -0.88148546 -0.43614879 -0.12119907 0.086872377
0.90826696 0.49403244 0.12362698 8.2061201e-39 -0.86197019 -0.37083316 -0.3456735 0.076621406
0.90429711 0.50184572 0.12317445 8.8496833e-39 -0.75699961 -0.39395005 -0.52130103 0.049122598
0.88507068 0.51620972 0.12952742 8.3887065e-39 -0.78070647 -0.1878432 -0.47194332 0.014102655
0.89273608 0.5151881 0.12487373 7.0054189e-39 -0.54886508 -0.42635989 -0.71891832 0.0059924969
0.90082675 0.5121066 0.12176297 8.4812609e-39 -0.65561002 -0.32645082 -0.68088573 0.020750504
0.88146281 0.52176297 0.126489 7.8351754e-39 -0.61437142 -0.44939449 -0.6485309 0.019510798
0.87551272 0.53128076 0.12576616 8.5727292e-39 -0.67215025 -0.49171594 -0.55268383 0.028316762
0.88913786 0.53299129 0.12592041 8.8486043e-39 -0.96310365 0.063216865 -0.26160079 0.011125352
0.86480594 0.54414141 0.12592566 8.8486028e-39 -0.62318373 -0.4745791 -0.6152761 0.034926463
0.89142108 0.5442847 0.12388286 8.8489602e-39 -0.95924604 -0.015068047 -0.27668867 0.021702325
0.85886621 0.55870599 0.1247336 8.7574918e-39 -0.69452691 -0.18150194 -0.69619656 0.031385582
0.86562407 0.5512253 0.12158886 8.9415117e-39 -0.55523992 -0.35405773 -0.75256348 0.017775489
0.8904497 0.55176264 0.1260612 9.2173826e-39 -0.95675445 -0.14824978 -0.2502858 0.030350061
0.8591457 0.56806779 0.1223499 8.5734551e-39 -0.73332256 -0.12268133 -0.66845787 0.020453617
0.88971657 0.56222475 0.12124046 9.0329913e-39 -0.86148107 -0.30378622 -0.40689594 0.022821097
0.85831439 0.57770401 0.12480139 8.2975857e-39 -0.86695057 -0.10015952 -0.48822612 0.014274308
0.86816949 0.5793345 0.12870993 8.2975899e-39 -0.87132931 -0.069238968 -0.48578936 0.045642152
0.87968308 0.57908911 0.12025615 9.1244709e-39 -0.68230844 -0.50841147 -0.52533126 0.011213498
0.85982496 0.58310699 0.12105019 8.4812567e-39 -0.87367618 -0.17248981 -0.45490354 0.020088078
0.86677778 0.58816689 0.12722552 8.8493231e-39 -0.87614703 -0.21603602 -0.35907972 0.034408875
0.87227368 0.58359569 0.12371082 8.84897e-39 -0.78346348 -0.18824057 -0.54136485 0.027559198
0.85564154 0.59315884 0.12455827 8.757845e-39 -0.91892815 -0.19754569 -0.33188018 0.023930961
0.86490589 0.59655249 0.12464957 8.757489e-39 -0.87203538 -0.29756048 -0.3451792 0.022650924
