# .PCD v0.7 - Point Cloud Data file format
VERSION 0.7
FIELDS x y z
SIZE 4 4 4
TYPE F F F
COUNT 1 1 1
WIDTH 103
HEIGHT 1
VIEWPOINT 0 0 0 1 0 0 0
POINTS 103
DATA ascii
0.28210378 0.055608824 -0.19030863
0.28612652 0.064630061 -0.18848975
0.25750905 0.025291588 -0.16217484
0.27244535 0.045666225 -0.17086872
0.28314492 0.057587698 -0.16744545
0.29207766 0.068302326 -0.16805762
0.25767711 0.02835726 -0.14525861
0.26357532 0.031753421 -0.14899406
0.27172995 0.046035379 -0.15192267
0.28467488 0.057597969 -0.14552195
0.28981036 0.06423182 -0.1494734
0.19110665 -0.053562332 -0.12676695
0.21905574 -0.025394686 -0.12240068
0.23790547 0.004667189 -0.12402032
0.24733238 0.010943944 -0.13180579
0.25579 0.026629457 -0.12464687
0.26250458 0.033511028 -0.13064371
0.27348492 0.045286715 -0.1336275
0.28522748 0.054526556 -0.12951638
0.18997556 -0.050037205 -0.11005557
0.19962457 -0.036342982 -0.11517637
0.21192667 -0.029049879 -0.10831113
0.22112869 -0.021799993 -0.11028318
0.23005801 -0.0090788798 -0.11083964
0.23709267 0.0087568359 -0.10858198
0.24393815 0.011756029 -0.1111449
0.25354332 0.02443039 -0.11222694
0.26688406 0.034818772 -0.10962783
0.27559403 0.042030372 -0.11094147
0.28631926 0.051081121 -0.11036076
0.29680574 0.06137912 -0.11812184
0.1740799 -0.06973885 -0.08915171
0.19017462 -0.049594264 -0.088925786
0.2068357 -0.044036411 -0.089290269
0.20935743 -0.028920757 -0.089935526
0.22082613 -0.021447908 -0.09859018
0.21632555 -0.016013887 -0.088461906
0.22618751 -0.0075517222 -0.091458537
0.23517942 0.0050199577 -0.089896172
0.24469323 0.013008354 -0.090882674
0.25595671 0.022395406 -0.091350749
0.26914489 0.032118548 -0.09021166
0.27600488 0.041404292 -0.097794898
0.28726029 0.04726252 -0.092936583
0.20044059 -0.042096764 -0.074536942
0.20691128 -0.028421881 -0.070753008
0.23682161 0.0025335629 -0.069111049
0.24802807 0.012000699 -0.072012641
0.26232803 0.018406786 -0.064716965
0.27122244 0.028545566 -0.070737988
0.28250214 0.036994725 -0.067452267
0.28594887 0.04300084 -0.070258707
0.18188171 -0.070416115 -0.053102393
0.22884162 -0.0078326901 -0.051284257
0.23988572 0.00093524158 -0.050654206
0.24907291 0.0085834851 -0.050992135
0.2627838 0.019315915 -0.058516167
0.27464932 0.027337831 -0.053619247
0.28793028 0.037382983 -0.049962088
0.29409394 0.044293359 -0.053080607
0.18629651 -0.068820231 -0.027431389
0.24456443 -0.00062149297 -0.02683191
0.25417116 0.0072943051 -0.032652494
0.26802504 0.016712157 -0.029492116
0.27432644 0.022118885 -0.03068395
0.28805399 0.031639617 -0.02912507
0.29760784 0.040197998 -0.029255336
0.19040696 -0.070620954 -0.010425501
0.20561826 -0.047353547 -0.0049859639
0.22631162 -0.026156373 -0.0059980233
0.23283647 -0.015929731 -0.010437611
0.24799769 -0.0065708254 -0.0095588937
0.25703439 0.0030967658 -0.011928426
0.26834378 0.011163024 -0.0086346548
0.29057294 0.028569669 -0.0085998261
0.21101102 -0.051061146 0.0086726695
0.22960027 -0.029717082 0.010029696
0.24337827 -0.027523488 0.014203399
0.23662156 -0.016831078 0.011075106
0.25104383 -0.010852185 0.0076127574
0.26374644 -0.0032456154 0.010423142
0.25778362 0.00087189488 0.0022500432
0.27257371 0.0079273675 0.0087626101
0.28408071 0.016201567 0.011511935
0.29201466 0.027719056 0.0092532737
0.20877559 -0.050270095 0.031629939
0.23169972 -0.031585958 0.028296145
0.25319815 -0.013552248 0.028999271
0.26525122 -0.0088100005 0.029774979
0.27360591 0.006713077 0.028207077
0.28460178 0.013138235 0.028955514
0.29317418 0.029122138 0.031852003
0.21807456 -0.054218333 0.04755877
0.22889951 -0.045592301 0.051104225
0.23418288 -0.036888193 0.045972079
0.25458655 -0.015297433 0.040882651
0.27392602 0.011688089 0.052687258
0.28178766 0.0086714663 0.051369682
0.23934677 -0.037653938 0.06123507
0.25905448 -0.013970599 0.072643153
0.26956674 -0.0088623874 0.068903163
0.28479999 0.011803936 0.061928753
0.2764532 -0.0051676957 0.10965183
