# .PCD v0.7 - Point Cloud Data file format
VERSION 0.7
FIELDS x y z
SIZE 4 4 4
TYPE F F F
COUNT 1 1 1
WIDTH 361
HEIGHT 1
VIEWPOINT 0 0 0 1 0 0 0
POINTS 361
DATA ascii
0.28704345 0.066818066 -0.19259031
0.2876105 0.064880654 -0.17261723
0.29185206 0.069434315 -0.17181338
0.28423062 0.059073616 -0.16128948
0.29108906 0.066374764 -0.1636638
0.29775903 0.072519578 -0.16413608
0.26628631 0.042012058 -0.15541485
0.27225924 0.046118736 -0.15571603
0.27740625 0.052672923 -0.15650176
0.28353387 0.057182375 -0.15018262
0.28804579 0.062109515 -0.15295084
0.29042026 0.066287093 -0.15384048
0.25912687 0.032852754 -0.14232022
0.26835066 0.041487958 -0.14474708
0.27434736 0.047885232 -0.14723366
0.28581592 0.058013562 -0.14086129
0.289307 0.063796774 -0.14637652
0.29146844 0.064733885 -0.14472577
0.26095843 0.029982902 -0.13347764
0.26266772 0.03526815 -0.13363197
0.2687608 0.042011384 -0.13644144
0.27646324 0.0484218 -0.1368444
0.28309557 0.053782862 -0.13585611
0.25477612 0.02432856 -0.12129837
0.25740814 0.030578874 -0.12011287
0.26388758 0.035282027 -0.12482151
0.27523071 0.045426968 -0.12759666
0.28735939 0.055270251 -0.12317666
0.23802048 0.010423645 -0.1147024
0.24555594 0.015475364 -0.11560851
0.24979183 0.020856941 -0.11546175
0.25365642 0.024918923 -0.11486674
0.25825709 0.030066146 -0.11732692
0.26542592 0.0352454 -0.11493645
0.27039859 0.038826242 -0.11597907
0.27441025 0.042775691 -0.11769197
0.28104708 0.048445448 -0.11863202
0.29216161 0.056228783 -0.11202163
0.29680574 0.06137912 -0.11812184
0.23554476 0.0045675258 -0.10630597
0.2377128 0.011279337 -0.10473756
0.24660453 0.016983047 -0.10583197
0.24919057 0.020345299 -0.1071241
0.25682065 0.025964638 -0.10635522
0.26048613 0.029150754 -0.10630802
0.26588047 0.032759015 -0.10494605
0.27222922 0.038112443 -0.10596959
0.2767778 0.041285049 -0.10419096
0.28422806 0.047929745 -0.10532986
0.28784034 0.051720511 -0.10545955
0.22684561 -0.0050377627 -0.095284678
0.2360373 0.0059400885 -0.093893252
0.24092169 0.00948596 -0.097960554
0.24397258 0.013845816 -0.095652714
0.253851 0.021838654 -0.096716762
0.26282683 0.027458571 -0.094062388
0.26784548 0.032799799 -0.095812201
0.27546519 0.038425978 -0.094992265
0.27600488 0.041404292 -0.097794898
0.2843276 0.044654846 -0.098188631
0.2919594 0.052151196 -0.093405016
0.20510861 -0.024830177 -0.083239339
0.21669161 -0.01551517 -0.084598795
0.22649595 -0.0036269515 -0.085799292
0.23432156 0.0040998268 -0.085899092
0.24106237 0.0098537374 -0.086293258
0.2453246 0.013569533 -0.087266698
0.25218487 0.018286727 -0.08724016
0.25806239 0.02295216 -0.085984744
0.26385882 0.026261635 -0.083719142
0.26991397 0.032270133 -0.087941319
0.27495891 0.035495162 -0.084742643
0.28549385 0.044981521 -0.087216109
0.19160315 -0.033126753 -0.070735596
0.20419697 -0.027730539 -0.073975943
0.20808744 -0.018578589 -0.075633965
0.21658416 -0.014239318 -0.077205084
0.21984282 -0.0092564635 -0.078034543
0.22437826 -0.0050644516 -0.077785686
0.23146039 -0.0017058905 -0.076767489
0.23505929 0.002848218 -0.075457141
0.24341395 0.0090236496 -0.078422174
0.24226961 0.012426235 -0.079522237
0.25462013 0.016854117 -0.076593935
0.26613396 0.025956884 -0.075381711
0.2704339 0.028103225 -0.072449289
0.27541754 0.032903478 -0.076913878
0.28183752 0.038672268 -0.073503099
0.28635666 0.044482946 -0.078337006
0.1841355 -0.039536603 -0.067515381
0.19421594 -0.0283945 -0.064883821
0.20404316 -0.028574903 -0.067113519
0.21129617 -0.021615731 -0.065984264
0.21470927 -0.014844496 -0.064148106
0.22071478 -0.01082982 -0.064169019
0.22622181 -0.0049243867 -0.065814063
0.23313452 -0.0011138935 -0.065079033
0.23858392 0.0022189077 -0.062764958
0.24593313 0.0073437826 -0.062025413
0.25390351 0.014355707 -0.063499451
0.26232803 0.018406786 -0.064716965
0.26518586 0.023159906 -0.066696301
0.2727783 0.028511753 -0.063996933
0.27738512 0.032638147 -0.068989813
0.28316677 0.035317186 -0.061401442
0.28554109 0.041518737 -0.062180404
0.17240335 -0.055560682 -0.054215003
0.1751972 -0.048017237 -0.055941314
0.18478197 -0.045326266 -0.054874644
0.19221622 -0.041956745 -0.053471759
0.18491939 -0.036433291 -0.05780689
0.19360204 -0.033820599 -0.054711502
0.20187263 -0.031841278 -0.053367682
0.19561392 -0.027503548 -0.051087935
0.20419566 -0.023153467 -0.055617649
0.21070051 -0.020655448 -0.056432772
0.21423966 -0.016133877 -0.05494998
0.22150505 -0.011482089 -0.056140929
0.22520794 -0.008042518 -0.057800598
0.2352317 -0.0024661068 -0.056435518
0.23988572 0.00093524158 -0.050654206
0.24442764 0.0054844813 -0.055932514
0.25552535 0.013987106 -0.054752164
0.2627838 0.019315915 -0.058516167
0.26964849 0.024574481 -0.0567744
0.27349073 0.028294679 -0.058776006
0.27899286 0.03135749 -0.055175632
0.28343263 0.035353519 -0.053838223
0.29013973 0.03978648 -0.053949594
0.28989601 0.044104777 -0.058639564
0.29878107 0.046976253 -0.057296209
0.17550936 -0.056358226 -0.04534144
0.18304792 -0.052282907 -0.041338556
0.17715281 -0.04729721 -0.044011302
0.18602106 -0.046092182 -0.044771634
0.19160987 -0.040951476 -0.043619215
0.18487661 -0.037877239 -0.046131186
0.19564027 -0.033573672 -0.044320494
0.20169188 -0.031003825 -0.044079822
0.19504815 -0.028561965 -0.042567037
0.20714687 -0.023236273 -0.044224374
0.213135 -0.022047753 -0.042662442
0.2172606 -0.015692182 -0.044747263
0.22539124 -0.012375943 -0.044602189
0.22905885 -0.0088595087 -0.046785075
0.23665494 -0.0037699696 -0.045941241
0.24478212 0.0035123765 -0.04432413
0.25155655 0.011349976 -0.048959736
0.27646512 0.025124665 -0.043750953
0.2875708 0.034807898 -0.045364246
0.29057792 0.039584026 -0.046696283
0.2936047 0.04179905 -0.043306045
0.16959372 -0.058750197 -0.032815613
0.17651011 -0.056615386 -0.034908582
0.18365929 -0.053226292 -0.032700647
0.17973635 -0.046795599 -0.034327783
0.18428043 -0.045679707 -0.033482835
0.19155096 -0.040528391 -0.03359358
0.18826538 -0.036212854 -0.038494222
0.19574361 -0.033259064 -0.033348154
0.20174457 -0.031215021 -0.034703825
0.2079019 -0.02444852 -0.037022062
0.21447325 -0.022580393 -0.034145687
0.21763808 -0.017714068 -0.035060119
0.22596541 -0.011899814 -0.03545545
0.2343473 -0.0057284408 -0.037189569
0.24704726 0.0028434426 -0.035762217
0.25530684 0.0084417667 -0.035702892
0.25935951 0.012464829 -0.034188595
0.26474583 0.016525611 -0.035747889
0.272715 0.021164175 -0.034549836
0.28219271 0.026813317 -0.036713995
0.28658915 0.033643246 -0.031693388
0.29030105 0.034299761 -0.037724391
0.29603559 0.040116981 -0.032719474
0.16357461 -0.063098334 -0.021888738
0.16894561 -0.057050288 -0.022635253
0.17533992 -0.055721004 -0.026073299
0.18398562 -0.053534906 -0.024091864
0.18596986 -0.045739617 -0.023735164
0.19451679 -0.045086272 -0.023418628
0.19496536 -0.037436828 -0.025026692
0.20228451 -0.030891515 -0.026417755
0.20970863 -0.027361661 -0.025329003
0.21667935 -0.022441518 -0.023736976
0.22552308 -0.015275294 -0.025986176
0.23681919 -0.0072447625 -0.025694832
0.24456443 -0.00062149297 -0.02683191
0.25497106 0.0054271817 -0.024956277
0.2652095 0.013980252 -0.026784671
0.27411979 0.019630611 -0.025943786
0.27593791 0.023073593 -0.026818061
0.28274614 0.02592193 -0.021902367
0.28995717 0.032738678 -0.022432365
0.2965377 0.036420763 -0.024283906
0.29918012 0.040279016 -0.025791198
0.16912055 -0.057680972 -0.011035744
0.17340727 -0.053589016 -0.012454335
0.18632075 -0.055205125 -0.017330397
0.18679336 -0.044170272 -0.015628824
0.19421104 -0.046788868 -0.014574632
0.20202622 -0.043943506 -0.010835421
0.19443768 -0.038822837 -0.019927429
0.20306857 -0.035519287 -0.014917994
0.21356261 -0.031526115 -0.011362173
0.2133491 -0.027045215 -0.015736742
0.22352581 -0.023072496 -0.013404675
0.22755988 -0.017263912 -0.015648596
0.23699003 -0.013265614 -0.013468385
0.24201705 -0.0106581 -0.011474899
0.24552742 -0.0035682009 -0.016555309
0.25312576 -0.0022903122 -0.013023753
0.25596339 0.003755593 -0.015841391
0.26182088 0.0072283298 -0.010398559
0.26459858 0.01143737 -0.0163959
0.27357176 0.016809477 -0.013570636
0.2851842 0.025184564 -0.014864947
0.29361549 0.032045931 -0.013438873
0.17301372 -0.055935938 -0.0027937009
0.18203586 -0.048250258 -0.004162827
0.19493081 -0.045620099 -0.0043959576
0.20435484 -0.046997398 -0.0043932851
0.21256232 -0.041953176 -0.0018558376
0.20398417 -0.034632321 -0.0037680417
0.21282743 -0.037274651 -0.004196974
0.22278765 -0.033615213 -0.00079261232
0.21569309 -0.02679975 -0.0055599669
0.2262775 -0.025237292 -0.0056096255
0.23265556 -0.022700492 -0.0041851811
0.22979656 -0.017164797 -0.0062898775
0.23699939 -0.016024597 -0.0063435845
0.24429488 -0.012977342 -0.0039346772
0.246507 -0.0072063678 -0.0080942614
0.25651398 -0.0027246301 -0.0042704609
0.2581054 0.0024379389 -0.0080154603
0.26356548 0.0061188987 -0.0055442941
0.27139887 0.0082925856 -0.0010782545
0.26837295 0.012012607 -0.0084484369
0.27507785 0.016241902 -0.0050065015
0.28509143 0.024248442 -0.0063108578
0.29411131 0.029072449 -0.003178603
0.29486221 0.032296956 -0.0052058487
0.17356506 -0.060273893 0.0078194812
0.17702086 -0.054273874 0.0052009919
0.18240568 -0.05089432 0.0049614501
0.19383749 -0.044706367 0.0049569877
0.20212145 -0.038705744 0.0037549506
0.21443476 -0.031760987 0.0055407831
0.21960351 -0.028034801 0.0054941275
0.22895254 -0.021043919 0.0046121883
0.2369958 -0.027321627 0.0065512657
0.24362455 -0.022423513 0.0072439546
0.23534293 -0.015919046 0.0054627494
0.24530542 -0.018062621 0.0043926057
0.25188977 -0.011978073 0.0044926279
0.24757911 -0.0071550701 0.0024385718
0.25391069 -0.0080984021 0.003104774
0.26125312 -0.0023505501 0.0049282783
0.25778362 0.00087189488 0.0022500432
0.26652241 0.003831692 0.0040706717
0.27247855 0.0062047043 0.0048408206
0.27739447 0.014715325 0.001683558
0.28423429 0.015692141 0.007041133
0.28525004 0.022928596 0.00068970025
0.29216558 0.027422547 0.0054691243
0.17249002 -0.067056894 0.01459344
0.18167979 -0.055193938 0.011158239
0.19769487 -0.050109111 0.019861855
0.2028646 -0.043180794 0.012727612
0.21332434 -0.036408529 0.015383163
0.2248325 -0.035695575 0.013580848
0.22324917 -0.028007761 0.013636541
0.2311758 -0.02255312 0.01499127
0.2379002 -0.017743107 0.016687464
0.25373337 -0.015701247 0.012863693
0.2490418 -0.0093206204 0.013999842
0.2558465 -0.0056492626 0.011997189
0.26623976 -0.0041406807 0.015918007
0.26787812 0.0056761866 0.012277023
0.27294636 0.0036427379 0.016234744
0.27822226 0.013493556 0.013468839
0.28392714 0.016710991 0.015982736
0.28813219 0.024428342 0.014344307
0.29284191 0.024142563 0.01461468
0.1845638 -0.064877592 0.026903627
0.19656828 -0.054253466 0.024845311
0.20160972 -0.053386793 0.029013691
0.20484376 -0.04969231 0.026615696
0.21221663 -0.044282101 0.026838688
0.21553273 -0.039071895 0.022502052
0.22563687 -0.032577645 0.025624633
0.22657843 -0.02955547 0.020629803
0.23564366 -0.023122743 0.023729702
0.24647757 -0.013659758 0.022677969
0.25607994 -0.016735874 0.025490407
0.26135129 -0.013506666 0.023144498
0.25607073 -0.0069959462 0.024531996
0.26376882 -0.0054593971 0.022386832
0.26715687 0.0025887787 0.022319114
0.27431184 0.0053644301 0.024964062
0.28152183 0.0077419393 0.022625327
0.27785566 0.012455771 0.021205202
0.28438455 0.016201667 0.0239936
0.29053718 0.019810684 0.025808237
0.19730175 -0.063948005 0.036081403
0.2052229 -0.053811669 0.03362399
0.21332119 -0.052892916 0.038698081
0.21543941 -0.047554784 0.034989495
0.22191347 -0.042614296 0.03619346
0.22575127 -0.037553631 0.034298312
0.23379627 -0.03231629 0.035100468
0.23672497 -0.028329354 0.033545852
0.24171337 -0.023786295 0.033804987
0.24833256 -0.018983204 0.035409622
0.25404847 -0.016579254 0.033434469
0.26238808 -0.015602548 0.0323449
0.25817969 -0.008359449 0.032451164
0.26548266 -0.0057285931 0.035153545
0.27326521 -0.0037527967 0.035845105
0.26862553 0.0012385119 0.032068618
0.27516988 0.0065825749 0.033549339
0.28177458 0.0064235143 0.038075898
0.27851576 0.012048394 0.035136122
0.28479096 0.015513365 0.034274504
0.21632192 -0.055533454 0.046310976
0.21857683 -0.049495131 0.042468891
0.22531757 -0.044770621 0.044392381
0.23226038 -0.040782668 0.047174927
0.22874258 -0.038494945 0.040828958
0.23562729 -0.035373703 0.043634295
0.24531703 -0.033871375 0.045852177
0.24599417 -0.025891518 0.046346128
0.25458655 -0.015297433 0.040882651
0.26551625 -0.015854914 0.045318004
0.26532704 -0.0050133653 0.042612568
0.27346113 -0.0045468104 0.045782823
0.28133154 0.0057304874 0.049235631
0.22461604 -0.052735947 0.055895306
0.22817926 -0.047568843 0.053615365
0.23412424 -0.042103425 0.054443128
0.23817873 -0.036795937 0.053452976
0.24279383 -0.031691559 0.053489991
0.25222638 -0.024654303 0.055550233
0.26558471 -0.012676716 0.052067965
0.26586351 -0.0045997556 0.051233195
0.27436602 -0.0044761235 0.055992443
0.28117841 -0.004151985 0.059940472
0.23296311 -0.050165676 0.068118818
0.23348013 -0.046293363 0.062540121
0.23934677 -0.037653938 0.06123507
0.2438705 -0.036484092 0.06577082
0.25282383 -0.025377758 0.0633789
0.25886375 -0.016796594 0.066527784
0.26213858 -0.011763647 0.062800057
0.26847339 -0.0062657688 0.062108155
0.23944163 -0.04644347 0.072862983
0.24434653 -0.04145325 0.074478529
0.24816233 -0.034479931 0.073189132
0.2541278 -0.025874477 0.073215291
0.25917754 -0.017008377 0.071775511
0.28225124 -0.0030249704 0.074598633
