# .PCD v0.7 - Point Cloud Data file format
VERSION 0.7
FIELDS x y z
SIZE 4 4 4
TYPE F F F
COUNT 1 1 1
WIDTH 1337
HEIGHT 1
VIEWPOINT 0 0 0 1 0 0 0
POINTS 1337
DATA ascii
0.27363786 0.036481597 -0.18582298
0.27514601 0.044092149 -0.18810591
0.27807668 0.05257488 -0.18991059
0.2817232 0.055526733 -0.18531598
0.2852096 0.062442061 -0.18438919
0.25632393 -0.017546568 -0.17781387
0.26164958 -0.014918096 -0.17319462
0.25634453 -0.0060301796 -0.17472759
0.2601186 -0.0025249422 -0.17834082
0.25865063 0.009016186 -0.17190522
0.26387355 0.0035119727 -0.17715585
0.26469973 0.0148996 -0.1745365
0.26436895 0.024004277 -0.17461361
0.27027106 0.022925511 -0.17778373
0.26702523 0.035989337 -0.17336863
0.2730267 0.034226153 -0.17680544
0.26911658 0.043475986 -0.17075363
0.27413431 0.044443056 -0.17644809
0.27926654 0.053631812 -0.17486489
0.28205922 0.05610178 -0.1736014
0.2876105 0.064880654 -0.17261723
0.29185206 0.069434315 -0.17181338
0.24603087 -0.025115984 -0.16643015
0.24683072 -0.016940242 -0.16709189
0.25296289 -0.01304665 -0.16424747
0.24538675 -0.0066710636 -0.16216201
0.25158522 -0.0071973973 -0.16785853
0.24749523 0.0018672571 -0.16136405
0.25567976 0.0048534102 -0.16391158
0.26212335 0.003728617 -0.16915061
0.25444213 0.014188312 -0.16415566
0.26364312 0.012975529 -0.16800028
0.25750905 0.025291588 -0.16217484
0.2643714 0.025105059 -0.16640534
0.26275188 0.034688793 -0.16319963
0.27136829 0.034177631 -0.16796617
0.26616308 0.040637247 -0.16452035
0.27354631 0.04614304 -0.16775674
0.28423062 0.059073616 -0.16128948
0.29108906 0.066374764 -0.1636638
0.29775903 0.072519578 -0.16413608
0.29149124 -0.15313722 -0.15247223
0.19611174 -0.053385891 -0.15055242
0.23870787 -0.022491939 -0.15162012
0.24414101 -0.022604175 -0.1567381
0.23899829 -0.016332999 -0.15031677
0.24389011 -0.015093923 -0.15769
0.24457295 -0.0069391602 -0.15293118
0.25142479 -0.0030734539 -0.15791079
0.24766566 0.0066192895 -0.15638365
0.25364935 0.0067043379 -0.15412243
0.12648225 0.017540455 -0.1530807
0.13151571 0.014966309 -0.15316245
0.2566615 0.017675146 -0.15670812
0.25844467 0.029983014 -0.15184999
0.26202393 0.028012313 -0.15163659
0.26556197 0.035811462 -0.1550196
0.26628631 0.042012058 -0.15541485
0.27225924 0.046118736 -0.15571603
0.27740625 0.052672923 -0.15650176
0.28353387 0.057182375 -0.15018262
0.28804579 0.062109515 -0.15295084
0.29042026 0.066287093 -0.15384048
0.28845984 -0.15111838 -0.1434882
0.17881784 -0.082208574 -0.14186588
0.18989238 -0.061018102 -0.14423203
0.19354776 -0.056271948 -0.14773345
0.23404129 -0.022849478 -0.14328717
0.24486943 -0.0202887 -0.14497413
0.23639591 -0.016396122 -0.1430739
0.24469164 -0.01593722 -0.14457363
0.23964486 -0.005262211 -0.14194718
0.2453303 -0.0030662343 -0.14708817
0.24543226 0.0066431984 -0.14564046
0.25091681 0.0038168777 -0.14430612
0.1308987 0.016187847 -0.14985982
0.24821985 0.01337602 -0.14554805
0.25404239 0.016478337 -0.1460879
0.25545979 0.022236012 -0.14160562
0.26176178 0.028828546 -0.14427643
0.25912687 0.032852754 -0.14232022
0.26495361 0.034361362 -0.14504366
0.26835066 0.041487958 -0.14474708
0.27434736 0.047885232 -0.14723366
0.28581592 0.058013562 -0.14086129
0.289307 0.063796774 -0.14637652
0.29146844 0.064733885 -0.14472577
0.17885154 -0.08453472 -0.13393417
0.18094555 -0.085045904 -0.1329421
0.18020025 -0.070720144 -0.13305303
0.18256497 -0.066841267 -0.13530846
0.1880703 -0.059671771 -0.13656324
0.20467529 -0.042205196 -0.13006231
0.23395142 -0.018619016 -0.1383982
0.24350958 -0.012181615 -0.13868169
0.23790124 -0.0028238595 -0.13416037
0.24408248 -0.005155798 -0.13505062
0.24457531 0.0061458522 -0.13496774
0.24789923 0.015626825 -0.13658571
0.25202549 0.014560711 -0.13200948
0.25518572 0.02498094 -0.13252938
0.26095843 0.029982902 -0.13347764
0.26266772 0.03526815 -0.13363197
0.2687608 0.042011384 -0.13644144
0.27646324 0.0484218 -0.1368444
0.28309557 0.053782862 -0.13585611
0.2138702 -0.14245531 -0.12601274
0.22371037 -0.14113358 -0.12089214
0.20532766 -0.13598186 -0.12500164
0.19567548 -0.12604798 -0.12528209
0.1872279 -0.11339092 -0.12365834
0.18277773 -0.10093275 -0.12646914
0.18117696 -0.091374323 -0.12796268
0.17754078 -0.084023125 -0.12382372
0.17595667 -0.074492186 -0.12465976
0.17965564 -0.06770999 -0.12348229
0.18326446 -0.061552107 -0.12461656
0.1867246 -0.055888951 -0.12670383
0.19136274 -0.054949153 -0.12377919
0.19826895 -0.043739453 -0.12002157
0.20335966 -0.040540487 -0.12439825
0.21905574 -0.025394686 -0.12240068
0.2247785 -0.022079021 -0.1249722
0.22787046 -0.014884509 -0.12320624
0.23543306 -0.011691601 -0.12584399
0.2329492 -0.005348254 -0.12460409
0.24092488 -0.0044439733 -0.12569693
0.23790547 0.004667189 -0.12402032
0.24587376 0.0036199391 -0.12893051
0.24628818 0.01476639 -0.12653552
0.25477612 0.02432856 -0.12129837
0.25740814 0.030578874 -0.12011287
0.26388758 0.035282027 -0.12482151
0.27523071 0.045426968 -0.12759666
0.28735939 0.055270251 -0.12317666
0.23068886 -0.15027839 -0.11216263
0.21649134 -0.14266962 -0.11147664
0.22517578 -0.14794666 -0.11225929
0.25470972 -0.14830485 -0.11270069
0.20687999 -0.13565484 -0.11134302
0.21389088 -0.13686863 -0.11487083
0.22121602 -0.13877672 -0.11486815
0.1939569 -0.12469473 -0.11204743
0.20674279 -0.1272331 -0.1160952
0.1886014 -0.11752214 -0.11343306
0.19815607 -0.11694777 -0.11311624
0.17878708 -0.10233068 -0.11526011
0.18466237 -0.1087786 -0.11485872
0.19296439 -0.10736012 -0.11352124
0.17774768 -0.094428144 -0.11582715
0.18111518 -0.099140376 -0.11636832
0.17704338 -0.085058719 -0.11537989
0.18724391 -0.083484888 -0.11511641
0.17460439 -0.076582752 -0.11262877
0.18581381 -0.077516079 -0.11551519
0.1783803 -0.066789299 -0.11301251
0.18629728 -0.066228196 -0.11470173
0.18674941 -0.055332813 -0.11465698
0.192875 -0.05098464 -0.11805367
0.19477198 -0.044349506 -0.11405975
0.19962457 -0.036342982 -0.11517637
0.21122476 -0.032680161 -0.11519431
0.21545699 -0.026410725 -0.11511699
0.22050688 -0.021552157 -0.1182502
0.22621131 -0.015193719 -0.11841378
0.23343806 -0.011828661 -0.11486968
0.23486854 -0.0038045223 -0.11408763
0.24247085 0.0073675807 -0.11604556
0.23802048 0.010423645 -0.1147024
0.24555594 0.015475364 -0.11560851
0.24979183 0.020856941 -0.11546175
0.25365642 0.024918923 -0.11486674
0.25825709 0.030066146 -0.11732692
0.26542592 0.0352454 -0.11493645
0.27039859 0.038826242 -0.11597907
0.27441025 0.042775691 -0.11769197
0.28104708 0.048445448 -0.11863202
0.29216161 0.056228783 -0.11202163
0.29680574 0.06137912 -0.11812184
0.20928209 -0.14061636 -0.10087024
0.21504292 -0.14239402 -0.1039864
0.22606725 -0.14596161 -0.1046344
0.246948 -0.14454569 -0.10420466
0.251288 -0.146927 -0.10355468
0.20587221 -0.13432002 -0.10417404
0.21489364 -0.13477738 -0.10575026
0.22056033 -0.13697478 -0.10092494
0.1899609 -0.1219984 -0.10476933
0.19601916 -0.12504938 -0.10383731
0.20684171 -0.12666595 -0.10870418
0.1849788 -0.11626285 -0.10534829
0.19635002 -0.11467333 -0.10793193
0.17953448 -0.10595286 -0.10895374
0.1832068 -0.10757148 -0.10458297
0.19235998 -0.10634418 -0.10828624
0.17740726 -0.095053308 -0.10521419
0.18462665 -0.097632989 -0.10786676
0.17510758 -0.084506631 -0.10481352
0.1868273 -0.087401941 -0.10977731
0.17416689 -0.075321965 -0.10425091
0.18518101 -0.077316687 -0.10949426
0.17595232 -0.063566439 -0.10340265
0.1841649 -0.066992924 -0.10046405
0.18572401 -0.055354223 -0.10415336
0.18764508 -0.04883641 -0.10169659
0.19208786 -0.045365632 -0.10771307
0.20471057 -0.034029223 -0.10253493
0.20918873 -0.026909087 -0.1036784
0.2190523 -0.025220186 -0.10503104
0.2217505 -0.022047829 -0.10231617
0.22473359 -0.014895214 -0.10701623
0.22781172 -0.0048310235 -0.10541806
0.23328486 -0.0039201416 -0.10523244
0.23554476 0.0045675258 -0.10630597
0.24112122 0.0071981251 -0.10709354
0.2377128 0.011279337 -0.10473756
0.24660453 0.016983047 -0.10583197
0.24919057 0.020345299 -0.1071241
0.25682065 0.025964638 -0.10635522
0.26048613 0.029150754 -0.10630802
0.26588047 0.032759015 -0.10494605
0.27222922 0.038112443 -0.10596959
0.2767778 0.041285049 -0.10419096
0.28422806 0.047929745 -0.10532986
0.28784034 0.051720511 -0.10545955
0.22501974 -0.14039677 -0.096047059
0.23214062 -0.14185426 -0.097754285
0.24288376 -0.14290899 -0.095644824
0.20289204 -0.1324258 -0.094036207
0.21526155 -0.13546824 -0.093016192
0.18826772 -0.12139057 -0.094195664
0.19609651 -0.12739779 -0.092893332
0.20625123 -0.12351963 -0.095063023
0.21179765 -0.12960714 -0.098554187
0.1842391 -0.1154252 -0.094618872
0.19735381 -0.11457199 -0.098303936
0.2030248 -0.11737588 -0.094016463
0.17769219 -0.1055093 -0.09315218
0.18154275 -0.10423817 -0.096920878
0.19121592 -0.10593846 -0.0981071
0.17797872 -0.096059084 -0.094895788
0.18810426 -0.096502319 -0.099017382
0.17519103 -0.083963238 -0.094323754
0.18540576 -0.086507335 -0.095326692
0.17277575 -0.075425141 -0.095645212
0.18382117 -0.076527767 -0.094567582
0.17585301 -0.065473698 -0.092200913
0.18326078 -0.066314816 -0.09036205
0.17839959 -0.057618991 -0.093517549
0.18516685 -0.053775758 -0.093648545
0.19841845 -0.050135918 -0.090050757
0.18795735 -0.044780791 -0.097080447
0.19086041 -0.047377899 -0.091096841
0.20898591 -0.044345103 -0.094271868
0.2057277 -0.031525314 -0.095535509
0.21167594 -0.0364701 -0.094665587
0.20759347 -0.025519982 -0.093353875
0.21678846 -0.023772284 -0.095430039
0.22082613 -0.021447908 -0.09859018
0.21595949 -0.016512604 -0.092325009
0.22258538 -0.013966247 -0.094107233
0.22684561 -0.0050377627 -0.095284678
0.23272868 -0.0023573935 -0.095383592
0.2360373 0.0059400885 -0.093893252
0.24092169 0.00948596 -0.097960554
0.24397258 0.013845816 -0.095652714
0.253851 0.021838654 -0.096716762
0.26282683 0.027458571 -0.094062388
0.26784548 0.032799799 -0.095812201
0.27546519 0.038425978 -0.094992265
0.27600488 0.041404292 -0.097794898
0.2843276 0.044654846 -0.098188631
0.2919594 0.052151196 -0.093405016
0.23828903 -0.14109546 -0.080816358
0.2413639 -0.14222638 -0.088212296
0.25313053 -0.14142194 -0.082610182
0.21672054 -0.13228723 -0.08618281
0.22813267 -0.13738135 -0.086637661
0.23541467 -0.13862829 -0.084607393
0.24885537 -0.13779548 -0.081584975
0.18928438 -0.12036906 -0.084021047
0.19356072 -0.12409126 -0.087551318
0.20363148 -0.12411961 -0.083646022
0.21246698 -0.12770343 -0.082385987
0.18423443 -0.11411645 -0.084527276
0.1977853 -0.11374132 -0.087514617
0.17807503 -0.10608184 -0.085447408
0.1818203 -0.10522126 -0.084800459
0.19233751 -0.1052282 -0.084819265
0.17657781 -0.095542952 -0.084671974
0.18734571 -0.096387573 -0.088167213
0.19005965 -0.099301219 -0.081477679
0.17468758 -0.084261492 -0.085330322
0.18481119 -0.086549893 -0.086097591
0.17383695 -0.074470058 -0.083979219
0.18338777 -0.078243546 -0.085347317
0.17385384 -0.063586488 -0.08478149
0.1826684 -0.064159088 -0.081344679
0.17528844 -0.057213731 -0.083849981
0.1866371 -0.052675627 -0.084044337
0.19462182 -0.05434528 -0.084507249
0.18327896 -0.046559907 -0.08679346
0.19445613 -0.047102947 -0.084184662
0.20468549 -0.043727715 -0.084308669
0.19652541 -0.033178229 -0.080736682
0.20381194 -0.033567328 -0.087903656
0.21093291 -0.030942524 -0.085866109
0.20510861 -0.024830177 -0.083239339
0.21322043 -0.024738342 -0.083490171
0.21669161 -0.01551517 -0.084598795
0.22228199 -0.012770258 -0.086717874
0.22649595 -0.0036269515 -0.085799292
0.13041776 0.0088316537 -0.089547016
0.23432156 0.0040998268 -0.085899092
0.24106237 0.0098537374 -0.086293258
0.2453246 0.013569533 -0.087266698
0.25218487 0.018286727 -0.08724016
0.25806239 0.02295216 -0.085984744
0.26385882 0.026261635 -0.083719142
0.26991397 0.032270133 -0.087941319
0.27495891 0.035495162 -0.084742643
0.28549385 0.044981521 -0.087216109
0.23649091 -0.14073278 -0.075255439
0.25202209 -0.14070557 -0.079422906
0.22439723 -0.13265799 -0.076767407
0.23093195 -0.13323513 -0.077118039
0.24455814 -0.13521692 -0.074327536
0.250352 -0.13974497 -0.074622028
0.18885621 -0.12267013 -0.075944871
0.19531934 -0.12323663 -0.075131394
0.20405194 -0.12404137 -0.073785692
0.21496707 -0.12610151 -0.075599954
0.22344895 -0.12481674 -0.073427401
0.23365255 -0.12971088 -0.072136022
0.18534753 -0.11461689 -0.073644027
0.19404437 -0.11424257 -0.075259432
0.2047044 -0.11708327 -0.074384764
0.21329015 -0.11859057 -0.074180894
0.17782187 -0.10338573 -0.075710192
0.18221974 -0.10715944 -0.075342551
0.19048233 -0.10515359 -0.075983442
0.17606322 -0.094677329 -0.075975172
0.18757091 -0.095014021 -0.077673651
0.17376158 -0.08566419 -0.077247486
0.1846851 -0.085889049 -0.078089878
0.17374338 -0.074134544 -0.076410517
0.18279809 -0.076372832 -0.079065196
0.16996384 -0.061727904 -0.075552955
0.17440511 -0.067051552 -0.075861491
0.18198955 -0.068030238 -0.078484096
0.17474174 -0.055802945 -0.073352523
0.18376631 -0.054249652 -0.071759798
0.19024998 -0.055779845 -0.073426351
0.18608332 -0.044926785 -0.075822838
0.19121991 -0.049761981 -0.07329125
0.20044059 -0.042096764 -0.074536942
0.19160315 -0.033126753 -0.070735596
0.2051717 -0.035657056 -0.075027831
0.20419697 -0.027730539 -0.073975943
0.21278507 -0.023239896 -0.076934181
0.20808744 -0.018578589 -0.075633965
0.21658416 -0.014239318 -0.077205084
0.21984282 -0.0092564635 -0.078034543
0.22437826 -0.0050644516 -0.077785686
0.23146039 -0.0017058905 -0.076767489
0.23505929 0.002848218 -0.075457141
0.24341395 0.0090236496 -0.078422174
0.24226961 0.012426235 -0.079522237
0.25462013 0.016854117 -0.076593935
0.26613396 0.025956884 -0.075381711
0.2704339 0.028103225 -0.072449289
0.27541754 0.032903478 -0.076913878
0.28183752 0.038672268 -0.073503099
0.28635666 0.044482946 -0.078337006
0.22625595 -0.13274361 -0.063825257
0.23204741 -0.1376939 -0.068781406
0.24410741 -0.13581757 -0.064997546
0.19915336 -0.12012912 -0.061196573
0.20645761 -0.12167069 -0.06497106
0.21400379 -0.12610559 -0.064649269
0.22287546 -0.12180823 -0.061750025
0.23431067 -0.12775712 -0.062558167
0.18477611 -0.11247236 -0.065082945
0.19262978 -0.11482905 -0.065249972
0.20305605 -0.11715771 -0.065474801
0.21571733 -0.11663387 -0.060185336
0.17578314 -0.10538502 -0.065469965
0.18331003 -0.10733067 -0.064391285
0.19318581 -0.10549846 -0.066614836
0.20119375 -0.10989004 -0.069647245
0.17663892 -0.094538614 -0.06772764
0.18358512 -0.096169271 -0.064733915
0.1922859 -0.099177666 -0.061821677
0.17440216 -0.084283985 -0.066170603
0.18417123 -0.085403979 -0.068049632
0.17217369 -0.073013559 -0.063523658
0.18238562 -0.075729035 -0.068864964
0.16933133 -0.069094516 -0.063276313
0.17224078 -0.065058999 -0.065340869
0.18160942 -0.065695196 -0.069311045
0.17247687 -0.055658024 -0.066058524
0.18354219 -0.055594366 -0.063718453
0.17686734 -0.049959291 -0.065130576
0.18534064 -0.045154463 -0.062725246
0.19242673 -0.042776026 -0.063214011
0.1841355 -0.039536603 -0.067515381
0.19621187 -0.036798336 -0.0639925
0.20397463 -0.033713162 -0.065482326
0.19421594 -0.0283945 -0.064883821
0.20404316 -0.028574903 -0.067113519
0.21129617 -0.021615731 -0.065984264
0.21470927 -0.014844496 -0.064148106
0.22071478 -0.01082982 -0.064169019
0.22622181 -0.0049243867 -0.065814063
0.23313452 -0.0011138935 -0.065079033
0.23858392 0.0022189077 -0.062764958
0.24593313 0.0073437826 -0.062025413
0.25390351 0.014355707 -0.063499451
0.26232803 0.018406786 -0.064716965
0.26518586 0.023159906 -0.066696301
0.2727783 0.028511753 -0.063996933
0.27738512 0.032638147 -0.068989813
0.28316677 0.035317186 -0.061401442
0.28554109 0.041518737 -0.062180404
0.21905559 -0.13086922 -0.055432893
0.22536023 -0.1327264 -0.054081239
0.23335803 -0.13326536 -0.055821169
0.20745134 -0.12265147 -0.05661834
0.21554756 -0.12591374 -0.054904841
0.222314 -0.12824501 -0.056345087
0.23236686 -0.1256014 -0.051787663
0.18901598 -0.11202054 -0.055843078
0.1973259 -0.11471125 -0.055557057
0.20486556 -0.11640324 -0.054823626
0.21397093 -0.11339077 -0.050807893
0.22370182 -0.11955715 -0.050125331
0.17856438 -0.1021358 -0.057818901
0.18605205 -0.10565294 -0.055655621
0.19569296 -0.10595638 -0.056687862
0.20537782 -0.10783196 -0.059397534
0.17439692 -0.093840227 -0.054825488
0.18491656 -0.09693487 -0.054904949
0.19458258 -0.097273305 -0.055837587
0.17473261 -0.087081403 -0.054383386
0.18259534 -0.082765058 -0.055295385
0.16654889 -0.070629656 -0.058574107
0.17386031 -0.076488659 -0.055230238
0.18237793 -0.075440265 -0.058109842
0.16649733 -0.068043843 -0.053457826
0.17166868 -0.065522566 -0.054176588
0.18113706 -0.065401517 -0.059324011
0.17240335 -0.055560682 -0.054215003
0.1821159 -0.054998238 -0.051055331
0.1751972 -0.048017237 -0.055941314
0.18478197 -0.045326266 -0.054874644
0.19221622 -0.041956745 -0.053471759
0.18491939 -0.036433291 -0.05780689
0.19360204 -0.033820599 -0.054711502
0.20187263 -0.031841278 -0.053367682
0.19561392 -0.027503548 -0.051087935
0.20419566 -0.023153467 -0.055617649
0.21070051 -0.020655448 -0.056432772
0.21423966 -0.016133877 -0.05494998
0.22150505 -0.011482089 -0.056140929
0.22520794 -0.008042518 -0.057800598
0.2352317 -0.0024661068 -0.056435518
0.23988572 0.00093524158 -0.050654206
0.24442764 0.0054844813 -0.055932514
0.25552535 0.013987106 -0.054752164
0.2627838 0.019315915 -0.058516167
0.26964849 0.024574481 -0.0567744
0.27349073 0.028294679 -0.058776006
0.27899286 0.03135749 -0.055175632
0.28343263 0.035353519 -0.053838223
0.29013973 0.03978648 -0.053949594
0.28989601 0.044104777 -0.058639564
0.29878107 0.046976253 -0.057296209
0.25582579 -0.15051872 -0.040043958
0.26295575 -0.15095468 -0.040535204
0.22769284 -0.14164394 -0.041393556
0.2461949 -0.14339657 -0.044382662
0.25378093 -0.14601733 -0.043160833
0.26303315 -0.14889717 -0.040716775
0.22507127 -0.13660453 -0.044169426
0.23322262 -0.13589214 -0.043239284
0.24325582 -0.13795978 -0.040668748
0.20644368 -0.12077765 -0.046729557
0.21593843 -0.12478664 -0.045719229
0.22624186 -0.12632743 -0.043892842
0.23372494 -0.12961814 -0.047871731
0.19527356 -0.1133059 -0.046541423
0.20280014 -0.11518115 -0.044087987
0.21514997 -0.11554473 -0.042220615
0.2252699 -0.11870944 -0.041555557
0.17925768 -0.10154998 -0.04885634
0.18580775 -0.10418063 -0.045339432
0.19469476 -0.10557171 -0.04519406
0.20732704 -0.10672045 -0.044698477
0.17610189 -0.093912177 -0.04595593
0.1846018 -0.097555906 -0.045647372
0.19382459 -0.094110332 -0.045966428
0.17558755 -0.086706161 -0.045073863
0.1863472 -0.08621332 -0.046727721
0.16967037 -0.072754763 -0.044871259
0.1739544 -0.075436354 -0.044504095
0.18240739 -0.076459683 -0.045872405
0.16497026 -0.066718258 -0.044285167
0.17234617 -0.063940443 -0.043247808
0.18160446 -0.06436301 -0.04910332
0.17550936 -0.056358226 -0.04534144
0.18304792 -0.052282907 -0.041338556
0.17715281 -0.04729721 -0.044011302
0.18602106 -0.046092182 -0.044771634
0.19160987 -0.040951476 -0.043619215
0.17842305 -0.035412312 -0.043719828
0.18487661 -0.037877239 -0.046131186
0.19564027 -0.033573672 -0.044320494
0.20169188 -0.031003825 -0.044079822
0.19504815 -0.028561965 -0.042567037
0.20714687 -0.023236273 -0.044224374
0.213135 -0.022047753 -0.042662442
0.2172606 -0.015692182 -0.044747263
0.22539124 -0.012375943 -0.044602189
0.22905885 -0.0088595087 -0.046785075
0.23665494 -0.0037699696 -0.045941241
0.24478212 0.0035123765 -0.04432413
0.25155655 0.011349976 -0.048959736
0.27646512 0.025124665 -0.043750953
0.2875708 0.034807898 -0.045364246
0.29057792 0.039584026 -0.046696283
0.2936047 0.04179905 -0.043306045
0.22406977 -0.14002365 -0.038241692
0.23884054 -0.14066435 -0.039479189
0.24780396 -0.14279549 -0.035471905
0.25376067 -0.14436671 -0.03505972
0.26291418 -0.14582056 -0.034306474
0.27701813 -0.14650291 -0.031737663
0.28467509 -0.1460731 -0.031975228
0.21913624 -0.13271724 -0.03437268
0.22444916 -0.13577439 -0.03421618
0.23503149 -0.13723573 -0.03606414
0.24150614 -0.13465792 -0.033115961
0.20881182 -0.12078378 -0.031437874
0.21543518 -0.12440858 -0.03687204
0.22722347 -0.12607314 -0.033156797
0.23329338 -0.12866466 -0.03397182
0.19604321 -0.11108371 -0.035977699
0.20545928 -0.11580349 -0.034547679
0.2106232 -0.11804796 -0.03636178
0.22014214 -0.11623667 -0.030502494
0.18670955 -0.10180824 -0.034532152
0.19542956 -0.10742388 -0.035038516
0.20174222 -0.10042177 -0.038939562
0.21315163 -0.10960352 -0.039701637
0.17889148 -0.094767295 -0.03656299
0.18385373 -0.094942868 -0.035603158
0.19538739 -0.093112499 -0.038218606
0.17617257 -0.085346118 -0.034325607
0.18423949 -0.084957883 -0.033933066
0.19441423 -0.086372674 -0.033057217
0.20004116 -0.088100307 -0.030464742
0.17434093 -0.074552551 -0.035511751
0.18359591 -0.073687203 -0.035023931
0.16309468 -0.066093966 -0.032969624
0.17509852 -0.06614992 -0.037302185
0.18307421 -0.064359665 -0.034041747
0.16959372 -0.058750197 -0.032815613
0.17651011 -0.056615386 -0.034908582
0.18365929 -0.053226292 -0.032700647
0.17973635 -0.046795599 -0.034327783
0.18428043 -0.045679707 -0.033482835
0.19155096 -0.040528391 -0.03359358
0.18826538 -0.036212854 -0.038494222
0.19574361 -0.033259064 -0.033348154
0.20174457 -0.031215021 -0.034703825
0.2079019 -0.02444852 -0.037022062
0.21447325 -0.022580393 -0.034145687
0.21763808 -0.017714068 -0.035060119
0.22596541 -0.011899814 -0.03545545
0.2343473 -0.0057284408 -0.037189569
0.24704726 0.0028434426 -0.035762217
0.25530684 0.0084417667 -0.035702892
0.25935951 0.012464829 -0.034188595
0.26474583 0.016525611 -0.035747889
0.272715 0.021164175 -0.034549836
0.28219271 0.026813317 -0.036713995
0.28658915 0.033643246 -0.031693388
0.29030105 0.034299761 -0.037724391
0.29603559 0.040116981 -0.032719474
0.24573517 -0.14118394 -0.0277621
0.25683317 -0.14241071 -0.02411825
0.2634593 -0.1435148 -0.025600195
0.27770281 -0.14230472 -0.026964158
0.28670382 -0.14336976 -0.024036316
0.29949802 -0.14377657 -0.027421497
0.21896882 -0.13088496 -0.025612283
0.22478303 -0.13237381 -0.025955958
0.23438801 -0.13147394 -0.02625484
0.24519198 -0.13550922 -0.024914633
0.25708148 -0.13837631 -0.022986138
0.26913726 -0.13797459 -0.025668405
0.27359763 -0.13729806 -0.024730315
0.28328621 -0.13843723 -0.023349233
0.2953805 -0.13559587 -0.023007436
0.20934944 -0.12247267 -0.024760786
0.21552081 -0.125926 -0.024306564
0.22557868 -0.12579963 -0.024197258
0.23290381 -0.12684166 -0.023206115
0.19886084 -0.11114595 -0.025863294
0.20505932 -0.11489143 -0.025566835
0.21386988 -0.11602698 -0.022915853
0.1883039 -0.10002668 -0.02248814
0.19384351 -0.10423221 -0.025401155
0.20336881 -0.10771259 -0.024958923
0.21231174 -0.10595267 -0.026612891
0.18580031 -0.094939664 -0.025390312
0.19310348 -0.09628886 -0.023731673
0.20333578 -0.09799289 -0.027278883
0.17837548 -0.084451593 -0.026089249
0.18298866 -0.087035976 -0.024780057
0.19484746 -0.08602076 -0.02735492
0.20002443 -0.087725319 -0.025289785
0.17732081 -0.07532081 -0.025227543
0.18502255 -0.074021094 -0.025533408
0.1932869 -0.07655073 -0.023050761
0.16357461 -0.063098334 -0.021888738
0.17688413 -0.06634941 -0.027898485
0.18219683 -0.062925979 -0.02422894
0.19060259 -0.061376747 -0.022709541
0.16894561 -0.057050288 -0.022635253
0.17533992 -0.055721004 -0.026073299
0.18398562 -0.053534906 -0.024091864
0.18596986 -0.045739617 -0.023735164
0.19451679 -0.045086272 -0.023418628
0.19496536 -0.037436828 -0.025026692
0.20228451 -0.030891515 -0.026417755
0.20970863 -0.027361661 -0.025329003
0.21667935 -0.022441518 -0.023736976
0.22552308 -0.015275294 -0.025986176
0.23681919 -0.0072447625 -0.025694832
0.24456443 -0.00062149297 -0.02683191
0.25497106 0.0054271817 -0.024956277
0.2652095 0.013980252 -0.026784671
0.27411979 0.019630611 -0.025943786
0.27593791 0.023073593 -0.026818061
0.28274614 0.02592193 -0.021902367
0.28995717 0.032738678 -0.022432365
0.2965377 0.036420763 -0.024283906
0.29918012 0.040279016 -0.025791198
0.27747366 -0.14001283 -0.015565552
0.28647777 -0.14087495 -0.015666984
0.29201344 -0.14137958 -0.018373661
0.23859048 -0.13118428 -0.018590994
0.24502666 -0.13282806 -0.01594949
0.25567582 -0.13546331 -0.014860742
0.26531979 -0.13513662 -0.014534441
0.27404398 -0.13437392 -0.014350903
0.28516787 -0.13518055 -0.016064461
0.29500112 -0.13388798 -0.015255524
0.20873395 -0.12102529 -0.018664695
0.21577272 -0.12356509 -0.016177485
0.22543651 -0.12353752 -0.014371818
0.23455854 -0.12607025 -0.014757507
0.24530475 -0.12489152 -0.012298164
0.25019905 -0.12751365 -0.019715834
0.20638165 -0.11418805 -0.01490328
0.21357463 -0.1165461 -0.013239161
0.22334297 -0.11630063 -0.01273832
0.23182714 -0.11966192 -0.011886213
0.19727656 -0.10518246 -0.016747877
0.20482863 -0.1064179 -0.015232707
0.21616696 -0.1066741 -0.015465826
0.18943973 -0.094702005 -0.016205274
0.19417416 -0.096354701 -0.015830465
0.20437637 -0.096647382 -0.014891812
0.21155894 -0.09517289 -0.01122811
0.17993541 -0.083444029 -0.019934602
0.18634725 -0.085259639 -0.016280204
0.19427121 -0.087323606 -0.013992442
0.20364749 -0.086217292 -0.014320767
0.17846204 -0.074919611 -0.019068837
0.18448173 -0.076641366 -0.015115412
0.1943797 -0.076425262 -0.015101824
0.20297839 -0.077780649 -0.011237334
0.1642255 -0.062902793 -0.012478424
0.17958774 -0.066381499 -0.017939143
0.18436775 -0.065007634 -0.014024124
0.19449465 -0.067235492 -0.013873291
0.16912055 -0.057680972 -0.011035744
0.17340727 -0.053589016 -0.012454335
0.18632075 -0.055205125 -0.017330397
0.19295847 -0.056872666 -0.013576525
0.18679336 -0.044170272 -0.015628824
0.19421104 -0.046788868 -0.014574632
0.20202622 -0.043943506 -0.010835421
0.19443768 -0.038822837 -0.019927429
0.20306857 -0.035519287 -0.014917994
0.21356261 -0.031526115 -0.011362173
0.2133491 -0.027045215 -0.015736742
0.22352581 -0.023072496 -0.013404675
0.22755988 -0.017263912 -0.015648596
0.23699003 -0.013265614 -0.013468385
0.24201705 -0.0106581 -0.011474899
0.24552742 -0.0035682009 -0.016555309
0.25312576 -0.0022903122 -0.013023753
0.25596339 0.003755593 -0.015841391
0.26182088 0.0072283298 -0.010398559
0.26459858 0.01143737 -0.0163959
0.27357176 0.016809477 -0.013570636
0.2851842 0.025184564 -0.014864947
0.29361549 0.032045931 -0.013438873
0.24670115 -0.13135611 -0.0097035505
0.2525847 -0.13238542 -0.0074754842
0.26356888 -0.13242301 -0.0059854705
0.27521971 -0.13392623 -0.0060958988
0.28617647 -0.13311897 -0.007114613
0.29504016 -0.13209219 -0.0048072748
0.23511922 -0.12329711 -0.0050532762
0.24626543 -0.12681003 -0.004054538
0.253874 -0.12879744 -0.0044147
0.26391464 -0.12826553 -0.0029298868
0.27421623 -0.12888411 -0.0026730392
0.2837424 -0.12923278 -0.0015988797
0.29498708 -0.12879314 -0.0042738393
0.20898321 -0.1113376 -0.0062964456
0.2150608 -0.11517384 -0.0056070266
0.22518371 -0.1159647 -0.0052787513
0.23319139 -0.11661828 -0.0045535401
0.24149823 -0.11481802 -0.0028433381
0.19868948 -0.10102901 -0.0094938651
0.20567846 -0.10431073 -0.0056541646
0.2145388 -0.10631046 -0.0035767765
0.22474132 -0.1024885 -0.0014014505
0.19769688 -0.09251339 -0.0061384207
0.20302673 -0.094412066 -0.0033470679
0.21391857 -0.095893927 -0.0040059574
0.18864067 -0.080050707 -0.0084322616
0.19377576 -0.084631443 -0.0069635804
0.20431741 -0.085036665 -0.0027145832
0.21264564 -0.085237473 -0.0032030232
0.18771343 -0.07503476 -0.0084729521
0.19528352 -0.074686758 -0.0042485301
0.20446947 -0.074859828 -0.002678782
0.21187438 -0.075555563 -0.00024335738
0.16410269 -0.066338733 -0.0038196326
0.18842702 -0.064513572 -0.0078928145
0.19410793 -0.065422803 -0.0046750624
0.20527409 -0.065184735 -0.0028249261
0.17301372 -0.055935938 -0.0027937009
0.18771172 -0.056782186 -0.0094061494
0.19380471 -0.05644957 -0.0043327613
0.20352967 -0.056520104 -0.0028593123
0.18203586 -0.048250258 -0.004162827
0.19493081 -0.045620099 -0.0043959576
0.20435484 -0.046997398 -0.0043932851
0.21256232 -0.041953176 -0.0018558376
0.20398417 -0.034632321 -0.0037680417
0.21282743 -0.037274651 -0.004196974
0.22278765 -0.033615213 -0.00079261232
0.21569309 -0.02679975 -0.0055599669
0.2262775 -0.025237292 -0.0056096255
0.23265556 -0.022700492 -0.0041851811
0.22979656 -0.017164797 -0.0062898775
0.23699939 -0.016024597 -0.0063435845
0.24429488 -0.012977342 -0.0039346772
0.246507 -0.0072063678 -0.0080942614
0.25651398 -0.0027246301 -0.0042704609
0.2581054 0.0024379389 -0.0080154603
0.26356548 0.0061188987 -0.0055442941
0.27139887 0.0082925856 -0.0010782545
0.26837295 0.012012607 -0.0084484369
0.27507785 0.016241902 -0.0050065015
0.28509143 0.024248442 -0.0063108578
0.29411131 0.029072449 -0.003178603
0.29486221 0.032296956 -0.0052058487
0.26847452 -0.13034669 0.0037025139
0.27510664 -0.13086809 0.0044661984
0.28494519 -0.13255385 0.0022328496
0.29720089 -0.1310356 0.0040975139
0.23872721 -0.12238207 0.0028693974
0.24466839 -0.12216043 0.0035791427
0.25495702 -0.12423694 0.0042278199
0.2648164 -0.1253406 0.0056470279
0.27514958 -0.12563214 0.0056017688
0.28503433 -0.12692995 0.0048283511
0.29527372 -0.12634084 0.006120739
0.22666448 -0.11338045 0.0029641874
0.23431452 -0.11436569 0.0048776097
0.24334684 -0.1165248 0.0068910448
0.25274572 -0.11914004 0.0080163032
0.2080062 -0.10547553 0.00054103136
0.21529929 -0.10307067 0.0034689705
0.22550364 -0.1054775 0.0053965659
0.23474529 -0.10506057 0.0061535621
0.24232648 -0.10703802 0.0076928153
0.20710786 -0.093963064 0.0042630276
0.21525136 -0.09430325 0.0067182588
0.22520812 -0.096734159 0.0056255986
0.23426796 -0.099665895 0.0055338899
0.19906278 -0.083476648 0.0016640574
0.20478727 -0.084909827 0.0042101149
0.21359876 -0.083586082 0.0065527568
0.22266614 -0.086078115 0.0073856683
0.19870611 -0.07472425 0.0024428267
0.20494938 -0.074818358 0.00591852
0.21709844 -0.075746313 0.0071855956
0.22251405 -0.072110347 0.0098342793
0.16835374 -0.066644646 0.0066718031
0.17356506 -0.060273893 0.0078194812
0.19707432 -0.065251596 0.0022779617
0.2036809 -0.064150825 0.0059050191
0.21296729 -0.064397454 0.0067284666
0.17702086 -0.054273874 0.0052009919
0.18240568 -0.05089432 0.0049614501
0.197735 -0.055952996 0.0017992532
0.20463435 -0.054439113 0.0044022105
0.21479988 -0.055508137 0.0066808811
0.19383749 -0.044706367 0.0049569877
0.20985235 -0.049084313 0.0042280518
0.21436357 -0.04610252 0.0038285751
0.22253349 -0.044903282 0.0092012882
0.20212145 -0.038705744 0.0037549506
0.21443476 -0.031760987 0.0055407831
0.22473653 -0.036528535 0.0049614841
0.23105003 -0.033265024 0.0077635357
0.21960351 -0.028034801 0.0054941275
0.22895254 -0.021043919 0.0046121883
0.2369958 -0.027321627 0.0065512657
0.24362455 -0.022423513 0.0072439546
0.23534293 -0.015919046 0.0054627494
0.24530542 -0.018062621 0.0043926057
0.25188977 -0.011978073 0.0044926279
0.24757911 -0.0071550701 0.0024385718
0.25391069 -0.0080984021 0.003104774
0.26125312 -0.0023505501 0.0049282783
0.25778362 0.00087189488 0.0022500432
0.26652241 0.003831692 0.0040706717
0.27247855 0.0062047043 0.0048408206
0.27739447 0.014715325 0.001683558
0.28423429 0.015692141 0.007041133
0.28525004 0.022928596 0.00068970025
0.29216558 0.027422547 0.0054691243
0.2973859 0.035878904 0.0049039563
0.26793808 -0.12326155 0.012939091
0.27665672 -0.12463156 0.013027297
0.28463903 -0.12325772 0.014403431
0.29325172 -0.12388697 0.014052198
0.23563546 -0.11129034 0.011281451
0.24561349 -0.11267402 0.014225011
0.25414827 -0.11486614 0.014871371
0.26354331 -0.1165761 0.015034194
0.27208367 -0.11864316 0.017536005
0.2812106 -0.11863305 0.018940434
0.29606748 -0.11918399 0.015847767
0.22803457 -0.10289688 0.013426634
0.23490617 -0.10418773 0.015517294
0.24387783 -0.10595699 0.015254034
0.2553089 -0.10418601 0.018183544
0.26308089 -0.10833098 0.015240614
0.21681865 -0.093559764 0.011349295
0.22503811 -0.09490703 0.014692922
0.23402101 -0.095103152 0.016021673
0.24460649 -0.09661375 0.016979363
0.25204146 -0.098075964 0.016933791
0.2148923 -0.084468834 0.013111174
0.22335073 -0.085277274 0.016940309
0.23523465 -0.085472807 0.016357034
0.20885929 -0.074940003 0.011480473
0.21632157 -0.074674845 0.016139541
0.22446318 -0.072885171 0.016607596
0.23285161 -0.077722676 0.017344726
0.17249002 -0.067056894 0.01459344
0.20831443 -0.065294661 0.01200779
0.21539749 -0.064942762 0.015362243
0.22266023 -0.064656727 0.01664423
0.23197897 -0.068521969 0.019762415
0.18167979 -0.055193938 0.011158239
0.19769487 -0.050109111 0.019861855
0.20699483 -0.056698352 0.011020696
0.21659258 -0.05540619 0.014733599
0.22417846 -0.054259699 0.016557351
0.23001899 -0.059221014 0.018732488
0.2028646 -0.043180794 0.012727612
0.21798617 -0.04806973 0.011759728
0.22586547 -0.045885008 0.016311379
0.23323421 -0.040961336 0.01861348
0.21332434 -0.036408529 0.015383163
0.2248325 -0.035695575 0.013580848
0.23580985 -0.033321094 0.014140431
0.24069436 -0.035679638 0.019914266
0.22324917 -0.028007761 0.013636541
0.2311758 -0.02255312 0.01499127
0.24581586 -0.024467312 0.015451976
0.2379002 -0.017743107 0.016687464
0.25373337 -0.015701247 0.012863693
0.2490418 -0.0093206204 0.013999842
0.2558465 -0.0056492626 0.011997189
0.26623976 -0.0041406807 0.015918007
0.26787812 0.0056761866 0.012277023
0.27294636 0.0036427379 0.016234744
0.27822226 0.013493556 0.013468839
0.28392714 0.016710991 0.015982736
0.28813219 0.024428342 0.014344307
0.29284191 0.024142563 0.01461468
0.29631239 0.031513382 0.015497871
0.27527905 -0.12143683 0.020587239
0.28952551 -0.12161048 0.020061843
0.25511271 -0.11183006 0.020855911
0.26420709 -0.11258182 0.024065668
0.27505335 -0.11400207 0.026032893
0.28530279 -0.11639424 0.024604108
0.29333529 -0.11626139 0.02418755
0.24527039 -0.10276221 0.022337871
0.25540218 -0.10391424 0.025745532
0.26512551 -0.10564341 0.025677128
0.27150688 -0.1053488 0.027914455
0.23593295 -0.092944577 0.023412744
0.24380045 -0.094455212 0.025437944
0.25511116 -0.095637001 0.026415298
0.22539023 -0.082741551 0.0218997
0.2338163 -0.085154489 0.025012525
0.24290037 -0.085929699 0.026710302
0.25100821 -0.087525599 0.027318275
0.21761969 -0.070538335 0.020332932
0.22529714 -0.075662188 0.024545237
0.23378713 -0.075906463 0.026508056
0.242339 -0.076564744 0.026759908
0.17864892 -0.069623679 0.02573557
0.1845638 -0.064877592 0.026903627
0.21818031 -0.064887285 0.021004558
0.22535591 -0.06440933 0.024336262
0.23316674 -0.066641301 0.026611134
0.19656828 -0.054253466 0.024845311
0.20160972 -0.053386793 0.029013691
0.22579172 -0.055529397 0.023711991
0.23231772 -0.056341324 0.026196867
0.24131383 -0.056916568 0.02870331
0.20484376 -0.04969231 0.026615696
0.21221663 -0.044282101 0.026838688
0.23515388 -0.045651361 0.026649345
0.24149172 -0.046015423 0.026936078
0.21553273 -0.039071895 0.022502052
0.22563687 -0.032577645 0.025624633
0.23776665 -0.037646554 0.025144238
0.24323528 -0.03487682 0.026636837
0.2502178 -0.0310537 0.028871361
0.22657843 -0.02955547 0.020629803
0.23564366 -0.023122743 0.023729702
0.24842232 -0.024820887 0.024884485
0.25270003 -0.024963405 0.02562489
0.24647757 -0.013659758 0.022677969
0.25607994 -0.016735874 0.025490407
0.26135129 -0.013506666 0.023144498
0.25607073 -0.0069959462 0.024531996
0.26376882 -0.0054593971 0.022386832
0.26715687 0.0025887787 0.022319114
0.27431184 0.0053644301 0.024964062
0.28152183 0.0077419393 0.022625327
0.27785566 0.012455771 0.021205202
0.28438455 0.016201667 0.0239936
0.29053718 0.019810684 0.025808237
0.2944963 0.027469084 0.021771848
0.29733378 0.034025393 0.029162936
0.27957407 -0.1125285 0.0332608
0.28446445 -0.11117643 0.032466158
0.29580173 -0.11150007 0.033523247
0.25750226 -0.10132924 0.031043492
0.26639006 -0.10412447 0.033258777
0.27501309 -0.10474602 0.035081059
0.28539327 -0.1068086 0.035649661
0.29514489 -0.10589127 0.035548817
0.24866468 -0.092417769 0.03218412
0.25579149 -0.094418392 0.034180451
0.26511249 -0.096863739 0.03602726
0.27396363 -0.094649464 0.038213264
0.24463023 -0.084466457 0.033926602
0.25333855 -0.085946083 0.036071185
0.26348487 -0.085631721 0.037742857
0.18878652 -0.070933208 0.034510713
0.19044064 -0.075482123 0.038663276
0.2354089 -0.073607013 0.033801563
0.24480347 -0.075829498 0.036796108
0.25384235 -0.073526219 0.035184611
0.19730175 -0.063948005 0.036081403
0.23584598 -0.065136194 0.034239639
0.24248354 -0.065578125 0.035406113
0.25267559 -0.062573411 0.039861836
0.2052229 -0.053811669 0.03362399
0.21332119 -0.052892916 0.038698081
0.2361664 -0.054696415 0.033289313
0.24233702 -0.055151802 0.037274897
0.25163683 -0.053807944 0.039623503
0.21543941 -0.047554784 0.034989495
0.22191347 -0.042614296 0.03619346
0.23790281 -0.043071937 0.031977165
0.24209848 -0.043415464 0.035283696
0.2520988 -0.042514831 0.038164075
0.22575127 -0.037553631 0.034298312
0.23379627 -0.03231629 0.035100468
0.2457217 -0.035659239 0.033951055
0.25449914 -0.031772558 0.036766548
0.23672497 -0.028329354 0.033545852
0.24171337 -0.023786295 0.033804987
0.25459889 -0.024455251 0.034250468
0.24833256 -0.018983204 0.035409622
0.25404847 -0.016579254 0.033434469
0.26238808 -0.015602548 0.0323449
0.25817969 -0.008359449 0.032451164
0.26548266 -0.0057285931 0.035153545
0.27326521 -0.0037527967 0.035845105
0.26862553 0.0012385119 0.032068618
0.27516988 0.0065825749 0.033549339
0.28177458 0.0064235143 0.038075898
0.27851576 0.012048394 0.035136122
0.28479096 0.015513365 0.034274504
0.28827804 0.021254294 0.030645665
0.29395008 0.02539859 0.034335807
0.28839523 0.031789772 0.038999997
0.29659161 0.034795694 0.036195777
0.29643619 0.041020006 0.038256064
0.27848914 -0.10074971 0.043051992
0.28683928 -0.1034866 0.041526828
0.29392001 -0.10215609 0.041739095
0.25967932 -0.090928093 0.040167339
0.26681674 -0.093416892 0.042660337
0.27627134 -0.09567748 0.043693975
0.28663692 -0.096334442 0.045960922
0.29530641 -0.096341439 0.047781762
0.25688529 -0.084440872 0.042550731
0.26484507 -0.086174451 0.044855282
0.2732299 -0.085602507 0.047168314
0.28437245 -0.085362598 0.047271833
0.19776399 -0.074000672 0.043513268
0.20515107 -0.075173795 0.049376164
0.24554692 -0.072538577 0.04193674
0.25512227 -0.076354437 0.045118485
0.26527873 -0.075031959 0.045862112
0.27693695 -0.077844605 0.047984298
0.20678063 -0.0667172 0.047031019
0.21196036 -0.06183425 0.047851317
0.24540369 -0.065765157 0.043602623
0.25296158 -0.067027539 0.047409102
0.26439345 -0.064416885 0.04751759
0.21632192 -0.055533454 0.046310976
0.24580511 -0.054671109 0.043730881
0.253822 -0.052890919 0.049077343
0.21857683 -0.049495131 0.042468891
0.22531757 -0.044770621 0.044392381
0.23226038 -0.040782668 0.047174927
0.24811545 -0.046229329 0.044945493
0.25465819 -0.042880435 0.045797341
0.22874258 -0.038494945 0.040828958
0.23562729 -0.035373703 0.043634295
0.24531703 -0.033871375 0.045852177
0.25629151 -0.032592706 0.045741059
0.24599417 -0.025891518 0.046346128
0.25659373 -0.025194908 0.046882313
0.26355094 -0.024128193 0.04542904
0.25458655 -0.015297433 0.040882651
0.26551625 -0.015854914 0.045318004
0.27015638 -0.014344022 0.043873433
0.26532704 -0.0050133653 0.042612568
0.27346113 -0.0045468104 0.045782823
0.27520734 0.0061742412 0.046076354
0.28133154 0.0057304874 0.049235631
0.27528805 0.01466443 0.047770638
0.28363615 0.016495891 0.047198366
0.28292683 0.024541041 0.044065062
0.2933231 0.029382356 0.041998036
0.27911103 0.031653829 0.049469668
0.29304659 0.036508575 0.043204926
0.28806323 0.0417514 0.047787577
0.29444391 0.045448646 0.044230204
0.29448217 0.053180143 0.046051662
0.29481944 0.065200984 0.046058685
0.28761816 0.074398421 0.047600828
0.29542068 0.075504772 0.044423044
0.27702886 0.081055216 0.04710266
0.28449064 0.084072843 0.043320078
0.29460043 0.080372542 0.04968594
0.27505001 0.091216601 0.046764754
0.28538021 0.096991897 0.043201081
0.29613507 0.090504043 0.047249887
0.27791664 -0.091034293 0.050297387
0.28535974 -0.092038862 0.051528025
0.29563665 -0.09241119 0.053992651
0.21168549 -0.082855381 0.057444647
0.26769355 -0.081873029 0.0507976
0.27435106 -0.082575791 0.053965807
0.28357404 -0.084070809 0.055487204
0.29244378 -0.087641068 0.057284072
0.2129104 -0.075756043 0.057192415
0.25856283 -0.071748607 0.051217511
0.26586375 -0.074404873 0.053361814
0.27436072 -0.075694263 0.056969475
0.28339183 -0.074977957 0.055484496
0.21366969 -0.066839851 0.054346405
0.25757551 -0.063058004 0.053571288
0.26475897 -0.0655853 0.056350131
0.27378431 -0.066575423 0.054997936
0.2193249 -0.057626404 0.053896446
0.22461604 -0.052735947 0.055895306
0.25608489 -0.054506917 0.054273136
0.26289514 -0.055212453 0.0577523
0.27377841 -0.057874657 0.057013586
0.22817926 -0.047568843 0.053615365
0.23412424 -0.042103425 0.054443128
0.24947914 -0.045322403 0.050305299
0.25601983 -0.045182195 0.05492086
0.26538077 -0.046342373 0.055731297
0.23817873 -0.036795937 0.053452976
0.24279383 -0.031691559 0.053489991
0.2576893 -0.038516004 0.053609259
0.263273 -0.034807902 0.056572411
0.25222638 -0.024654303 0.055550233
0.26678374 -0.024311753 0.054103855
0.26558471 -0.012676716 0.052067965
0.27374747 -0.013923105 0.055996299
0.26586351 -0.0045997556 0.051233195
0.27436602 -0.0044761235 0.055992443
0.28117841 -0.004151985 0.059940472
0.27399793 0.0054931119 0.055408102
0.28039533 0.0037880214 0.057675045
0.26981625 0.015554026 0.059384204
0.27532056 0.016554637 0.054796979
0.27684662 0.026364628 0.055936046
0.28387696 0.034985699 0.053712163
0.27773017 0.041952312 0.058735363
0.28562573 0.045641966 0.054610871
0.29303637 0.046204958 0.05256639
0.28320891 0.055030886 0.056394231
0.29215115 0.053424682 0.055370569
0.26449907 0.067237884 0.057169955
0.27465048 0.061990261 0.056531083
0.28497589 0.06613639 0.054151699
0.29859892 0.069421977 0.056228742
0.25538257 0.074381225 0.059570216
0.26427138 0.079125859 0.053896219
0.2763688 0.073742956 0.055213876
0.28493932 0.075353131 0.053302538
0.29684991 0.072892159 0.051275097
0.25773001 0.085037015 0.058134496
0.26690647 0.089786105 0.051883034
0.2743358 0.086393058 0.056971435
0.28310567 0.089172304 0.051997125
0.25878534 0.095754616 0.059410207
0.26560986 0.096301667 0.054570407
0.27398381 0.095139235 0.057783321
0.28120911 0.097347319 0.053009965
0.21492036 -0.08309374 0.060743496
0.22020319 -0.08371377 0.065827258
0.28676611 -0.082038656 0.062662132
0.29589579 -0.083747104 0.064606801
0.22277606 -0.074601054 0.066686094
0.27683929 -0.073201679 0.062355835
0.2847183 -0.074365184 0.064793393
0.29389361 -0.075102784 0.067200363
0.2230932 -0.063480467 0.063547812
0.26787353 -0.062739134 0.061927464
0.27442142 -0.064055197 0.064143687
0.28387398 -0.064138509 0.066595152
0.29397869 -0.06533923 0.06843853
0.22828679 -0.054970749 0.064338692
0.23296311 -0.050165676 0.068118818
0.26729232 -0.054194398 0.065017611
0.27548295 -0.057365641 0.065706417
0.2851457 -0.058007464 0.067017093
0.29204547 -0.056532435 0.068956487
0.23348013 -0.046293363 0.062540121
0.25808379 -0.042122379 0.062213786
0.2636078 -0.045587458 0.065106772
0.2744365 -0.045682676 0.065667212
0.23934677 -0.037653938 0.06123507
0.2438705 -0.036484092 0.06577082
0.25903815 -0.039312944 0.060047481
0.2643159 -0.03541714 0.063518807
0.2754167 -0.033425383 0.066339403
0.28466719 -0.033144254 0.069002792
0.25282383 -0.025377758 0.0633789
0.26772434 -0.028902221 0.061018437
0.27508247 -0.025531989 0.065415889
0.28443465 -0.022932656 0.068973996
0.25886375 -0.016796594 0.066527784
0.26213858 -0.011763647 0.062800057
0.27524382 -0.014621667 0.065050527
0.28319257 -0.010223445 0.066662088
0.26847339 -0.0062657688 0.062108155
0.2733694 -0.0044551454 0.066157557
0.28225797 -0.0038722157 0.06899064
0.26885027 0.0084927119 0.067502759
0.27242818 0.0044504697 0.065840758
0.2682713 0.014351167 0.066430457
0.27822608 0.015377308 0.067499526
0.28479999 0.011803936 0.061928753
0.26801389 0.025229387 0.063377544
0.27409443 0.024332058 0.064058393
0.26641452 0.032606728 0.068298943
0.27404124 0.036397561 0.063287184
0.28044975 0.033554971 0.060637064
0.26875526 0.04146456 0.067227021
0.27879974 0.045905508 0.069617592
0.28456572 0.04436662 0.062906474
0.25675404 0.05909586 0.067298763
0.26501492 0.056522828 0.065338217
0.27665573 0.054392327 0.062806249
0.2826063 0.058626384 0.065258496
0.25635502 0.068191193 0.062671237
0.26394776 0.065919213 0.062654555
0.27479115 0.066745773 0.064489812
0.29247776 0.060204551 0.060523614
0.25500607 0.074418157 0.060536932
0.26419646 0.074648961 0.065419957
0.25571841 0.083397567 0.063650437
0.2657584 0.08451286 0.062063165
0.25709787 0.093013033 0.068113096
0.26281989 0.094601303 0.064650424
0.22710042 -0.084229678 0.072575934
0.29609612 -0.082427055 0.071391091
0.2272273 -0.077009737 0.072500199
0.29749849 -0.078555286 0.071793199
0.23300599 -0.06316153 0.075969771
0.28816611 -0.060923666 0.071218118
0.29657722 -0.064534895 0.072039068
0.23352383 -0.055144425 0.073170342
0.27580312 -0.053050507 0.072169304
0.28492969 -0.05561354 0.073718913
0.2932255 -0.057119071 0.074895442
0.23944163 -0.04644347 0.072862983
0.24434653 -0.04145325 0.074478529
0.27419204 -0.048502233 0.073449656
0.2866767 -0.045282319 0.073908933
0.29490572 -0.044087432 0.076919995
0.24816233 -0.034479931 0.073189132
0.27992877 -0.032512262 0.07292366
0.28637198 -0.035094518 0.07560952
0.29700881 -0.033591107 0.076573953
0.2541278 -0.025874477 0.073215291
0.27822065 -0.024215635 0.072990917
0.28307104 -0.025637137 0.075527683
0.25917754 -0.017008377 0.071775511
0.2611829 -0.010629828 0.072524987
0.27727762 -0.015774831 0.074815504
0.28383654 -0.015445462 0.074576274
0.25912219 -0.0081068249 0.079626165
0.26511952 -0.0015033856 0.07381539
0.27372867 -0.0058848266 0.073953107
0.28225124 -0.0030249704 0.074598633
0.26795253 0.0060987398 0.074937426
0.27410448 0.0037275972 0.073967785
0.26588294 0.015355002 0.076513022
0.27549869 0.015580639 0.070236899
0.26544613 0.020392254 0.07051935
0.27632111 0.024294049 0.075264037
0.28483906 0.024310149 0.073956721
0.27368641 0.03514073 0.072733879
0.25655204 0.04696393 0.077792615
0.27604705 0.047303356 0.07242649
0.24982044 0.058986396 0.07418704
0.26037633 0.056079477 0.071086511
0.27310655 0.05567874 0.071741425
0.24395947 0.06405133 0.075221024
0.26423705 0.06580165 0.070049636
0.27271447 0.064665683 0.077828623
0.2714206 0.074267864 0.07535544
0.26801613 0.08123453 0.076035909
0.25344998 -0.092833042 0.087351516
0.23554102 -0.081616946 0.081281133
0.24037954 -0.083111823 0.083546937
0.23613997 -0.073976561 0.081530154
0.23867607 -0.063684113 0.082804173
0.24092904 -0.054424092 0.082430325
0.2456785 -0.046520762 0.083908178
0.25085625 -0.043972701 0.088884227
0.24976015 -0.035848595 0.080237858
0.25428385 -0.036509171 0.086660527
0.28733137 -0.030650452 0.08104334
0.29562604 -0.034890812 0.082405046
0.25659978 -0.021675728 0.085984021
0.28617629 -0.024012033 0.083335645
0.2943601 -0.028268136 0.088696197
0.25624064 -0.01212804 0.086529709
0.27857405 -0.01282981 0.084189378
0.28211075 -0.014285646 0.085367665
0.2566058 -0.0022802898 0.087654494
0.26971185 -0.00011952221 0.08408922
0.2746664 -0.0050271451 0.084975831
0.26551691 0.0051416373 0.084341131
0.26286751 0.013321602 0.088151738
0.27199894 0.018645586 0.082485355
0.26955816 0.022861565 0.089141913
0.2820037 0.029626971 0.082390815
0.27900231 0.036062002 0.088951051
0.28497317 0.036564894 0.084972255
0.24789311 0.045487821 0.086415038
0.25445917 0.044968601 0.085738957
0.26690888 0.046423033 0.087732486
0.2749438 0.044323698 0.086319521
0.2828095 0.048174728 0.08478684
0.23879761 0.059583694 0.085809022
0.24685013 0.054357577 0.085086703
0.2551164 0.057227816 0.086283743
0.26417446 0.054100454 0.083913811
0.27787626 0.052366339 0.08210443
0.23837987 0.06366384 0.081462309
0.25621623 0.068422273 0.084916972
0.2550773 0.073538885 0.087102488
0.26480231 0.07042259 0.080021948
0.26285726 0.085125856 0.085744888
0.2684238 0.092018142 0.085892364
0.25650918 -0.031865992 0.090171285
0.28914747 -0.020509183 0.092387356
0.29273835 -0.021715278 0.096392602
0.2782011 -0.01104559 0.09085615
0.28375837 -0.014383963 0.093369178
0.27634224 -0.0046761162 0.094068773
0.25660953 0.0063846298 0.091175288
0.26261947 0.0067910254 0.095967174
0.27148369 0.0014559552 0.094611973
0.25622165 0.018190801 0.094242871
0.26342282 0.018988771 0.092061438
0.25205153 0.024710476 0.097639248
0.2649335 0.029349962 0.095332533
0.24534774 0.036620796 0.096969202
0.25186548 0.033893108 0.091694124
0.27060685 0.030359691 0.092408702
0.24205106 0.046455145 0.091946736
0.26520562 0.040488638 0.092254058
0.23570733 0.054041743 0.092378289
0.25072256 0.050341554 0.090693288
0.24858654 0.067224212 0.090026237
0.24897119 0.074782372 0.091803133
0.25441605 0.079372659 0.090181857
0.25612524 0.08811602 0.093039744
0.25726557 0.095820174 0.095118538
0.26083609 0.099265918 0.094072863
0.29697484 -0.021536967 0.10524062
0.2877793 -0.015874878 0.10141877
